# .PCD v0.7 - Point Cloud Data file format
VERSION 0.7
FIELDS x y z
SIZE 4 4 4
TYPE F F F
COUNT 1 1 1
WIDTH 253
HEIGHT 1
VIEWPOINT 0 0 0 1 0 0 0
POINTS 253
DATA ascii
0.052589104 -0.10356252 0.32200018
0.055594172 -0.10356252 0.32200018
0.05863528 -0.10348687 0.32205281
0.061414853 -0.103462 0.32206461
0.06404876 -0.1031376 0.32296151
0.066066049 -0.10212575 0.32300001
0.046682514 -0.10036435 0.32272229
0.049584024 -0.10055747 0.32200018
0.052589104 -0.10055746 0.32200018
0.05550874 -0.10057642 0.32244128
0.058285832 -0.10051155 0.3229
0.061274268 -0.10051159 0.3229
0.064307652 -0.10036735 0.32299998
0.066796809 -0.10018467 0.32299998
0.041615862 -0.096431874 0.32299998
0.043745086 -0.097317062 0.32299998
0.046753537 -0.097392172 0.32297295
0.049660664 -0.097451799 0.32250008
0.052544814 -0.097475789 0.32205281
0.055461366 -0.097382508 0.32210007
0.058453716 -0.097438939 0.32293546
0.061293244 -0.097352929 0.32299998
0.064307652 -0.097352952 0.32299998
0.066751145 -0.097375773 0.32299998
0.038224656 -0.093543053 0.32299998
0.040793754 -0.094239563 0.32299998
0.043709196 -0.094338521 0.32299998
0.046723604 -0.094338521 0.32299998
0.049738016 -0.094338499 0.32299998
0.052602056 -0.094524443 0.32282853
0.055326618 -0.094492786 0.32275614
0.05825365 -0.094377995 0.32297295
0.061293244 -0.094338536 0.32299998
0.064035513 -0.094736256 0.32299998
0.066442847 -0.095468923 0.32300001
0.03508465 -0.09095329 0.32299998
0.037680387 -0.091324121 0.32299998
0.040694788 -0.091324136 0.32299998
0.0437092 -0.091324128 0.32299998
0.046723604 -0.091324121 0.32299998
0.049738016 -0.091324121 0.32299998
0.052501224 -0.091324121 0.32299998
0.055264428 -0.091324136 0.32299998
0.058242939 -0.091360033 0.32299998
0.060947843 -0.092046313 0.32299998
0.032405179 -0.087053716 0.32300001
0.034994476 -0.089063317 0.32299998
0.037792996 -0.088578209 0.32299998
0.040694799 -0.088309705 0.32299998
0.043709196 -0.088309728 0.32299998
0.046723612 -0.088309728 0.32299998
0.04963905 -0.088408679 0.32299998
0.052300256 -0.089264266 0.32299998
0.055264428 -0.089565717 0.32299998
0.029390771 -0.084642172 0.32299998
0.031750534 -0.085196339 0.32299998
0.034219399 -0.084764987 0.32299998
0.041280933 -0.085450821 0.32299998
0.043709196 -0.085295305 0.32299998
0.046723612 -0.085295305 0.32299998
0.048840869 -0.085295305 0.32299998
0.02890631 -0.082262956 0.32299998
0.031651586 -0.082280904 0.32299998
0.034665979 -0.082280904 0.32299998
0.037536848 -0.082119405 0.32299998
0.040845517 -0.082280904 0.32299998
0.043596588 -0.082549423 0.32299998
0.046615947 -0.08289095 0.32299998
0.048912644 -0.083178051 0.32299998
0.029725706 -0.080355026 0.32300001
0.031759236 -0.079876557 0.32299998
0.034414779 -0.080174677 0.32299998
0.036424384 -0.0805225 0.32300001
0.068588786 -0.099922135 0.324
0.069462307 -0.099586166 0.324
0.068430401 -0.097618334 0.32399994
0.069924273 -0.097477958 0.32399994
0.065052696 -0.093832649 0.32399997
0.067640707 -0.094488859 0.32400003
0.07045684 -0.094512217 0.32411432
0.07234516 -0.093598783 0.32450002
0.032253522 -0.090346962 0.324
0.033387426 -0.090598941 0.324
0.059719149 -0.090346962 0.324
0.061760176 -0.091027305 0.32399994
0.064506732 -0.09160684 0.32400006
0.067456357 -0.091606893 0.32400006
0.070374869 -0.091748804 0.32479995
0.073297799 -0.091502525 0.32447052
0.029817736 -0.087911166 0.324
0.031478927 -0.08862979 0.32399997
0.034098011 -0.088331133 0.32399994
0.036940314 -0.087575212 0.32399997
0.050647933 -0.087323226 0.324
0.052617941 -0.088056259 0.32399991
0.055435523 -0.088331126 0.324
0.058459267 -0.088583127 0.32400006
0.061483011 -0.088583104 0.32400006
0.064582266 -0.088440254 0.32412502
0.067502894 -0.088498436 0.3243334
0.070437804 -0.088400722 0.32430246
0.073482133 -0.088388667 0.32421437
0.029553758 -0.086315319 0.32400003
0.030657658 -0.086651288 0.324
0.034908988 -0.086199015 0.32399994
0.037329089 -0.085595399 0.32400006
0.039728884 -0.085403398 0.32399994
0.050206967 -0.085559383 0.32399994
0.05241178 -0.085559376 0.32400006
0.055589117 -0.085540131 0.32460001
0.058570702 -0.085469179 0.324619
0.061591633 -0.085456565 0.32457146
0.064642318 -0.085396968 0.32494727
0.067486152 -0.08531794 0.3249999
0.070266463 -0.08531794 0.3249999
0.073299535 -0.08531794 0.3249999
0.076332614 -0.085317947 0.3249999
0.026961979 -0.081275746 0.324
0.027969891 -0.081275746 0.324
0.038049024 -0.083291583 0.324
0.039812867 -0.082535647 0.324
0.043995708 -0.081376538 0.324
0.046508286 -0.081635721 0.32399994
0.049620632 -0.08220613 0.32399994
0.05241178 -0.082535639 0.32400006
0.055475868 -0.082421906 0.32436356
0.05863969 -0.082284875 0.3249999
0.061672755 -0.082284845 0.3249999
0.064705841 -0.08228486 0.3249999
0.067486145 -0.082284875 0.3249999
0.07026647 -0.082284845 0.3249999
0.073299542 -0.08228489 0.3249999
0.076332621 -0.082284883 0.3249999
0.026318036 -0.07914792 0.32399994
0.028626567 -0.079412609 0.32400003
0.031381294 -0.078678437 0.32399994
0.03444574 -0.078881934 0.32399994
0.037352379 -0.079437785 0.32400006
0.040316831 -0.079511903 0.32400006
0.043340571 -0.079511911 0.32400006
0.0463643 -0.079511881 0.32400006
0.04938804 -0.079511888 0.32400006
0.052420944 -0.079525314 0.32405561
0.055488005 -0.079601072 0.32451424
0.058639698 -0.079504564 0.3249999
0.06162918 -0.079539411 0.3249999
0.064512551 -0.080010064 0.32499999
0.067620955 -0.079976358 0.32499999
0.070310041 -0.079539426 0.3249999
0.073299535 -0.079504564 0.3249999
0.076332614 -0.079504557 0.3249999
0.025702089 -0.07648816 0.32400006
0.028725829 -0.076488145 0.32400006
0.031497594 -0.076488152 0.324
0.034269352 -0.07648816 0.32400006
0.037293091 -0.07648813 0.32400006
0.040316831 -0.076488152 0.32400006
0.043340567 -0.07648816 0.32400006
0.0463643 -0.07648816 0.32400006
0.049413785 -0.07652694 0.32416666
0.052551493 -0.076691039 0.32486102
0.055606622 -0.076724224 0.3249999
0.058603592 -0.076760344 0.3249999
0.060914498 -0.077482514 0.32500002
0.071056314 -0.076945409 0.32499999
0.073299535 -0.076724239 0.3249999
0.076332621 -0.076724254 0.3249999
0.079365671 -0.076724209 0.3249999
0.025702089 -0.073464431 0.32400006
0.028725829 -0.073464453 0.32400006
0.031497594 -0.073464423 0.324
0.034269352 -0.073464423 0.32400006
0.037293091 -0.073464423 0.32400006
0.040316831 -0.073464423 0.32400006
0.043340567 -0.073464438 0.32400006
0.046456184 -0.073608369 0.32463878
0.049536347 -0.073684782 0.32497212
0.052573554 -0.073691189 0.3249999
0.055507045 -0.073790744 0.3249999
0.057881422 -0.074666083 0.32500002
0.071530245 -0.073691167 0.32500002
0.073299535 -0.073691189 0.3249999
0.076332621 -0.073691182 0.3249999
0.079365671 -0.073691167 0.3249999
0.025702089 -0.07044068 0.32400006
0.028725829 -0.07044068 0.32400006
0.031497594 -0.070440687 0.324
0.034269352 -0.07044068 0.32400006
0.037293088 -0.07044068 0.32400006
0.040316835 -0.070440687 0.32400006
0.043340567 -0.070440672 0.32400006
0.046472386 -0.070604153 0.32474995
0.049540475 -0.070658103 0.3249999
0.052473981 -0.070757672 0.3249999
0.054511342 -0.071753375 0.32500002
0.071530245 -0.070658095 0.32500002
0.073299527 -0.070658088 0.3249999
0.076332621 -0.070658095 0.3249999
0.025597921 -0.067462988 0.32432431
0.028687403 -0.067404963 0.32410812
0.031497594 -0.067416959 0.324
0.034269355 -0.067416966 0.32400006
0.037299655 -0.067428291 0.32405561
0.040358316 -0.067485265 0.32433331
0.043392763 -0.067496806 0.32438892
0.046484035 -0.067589894 0.32483324
0.049440905 -0.0677246 0.3249999
0.071254499 -0.067326315 0.32500002
0.073299535 -0.067625038 0.3249999
0.076332621 -0.067625023 0.3249999
0.028308975 -0.064591959 0.3249999
0.03131754 -0.064541519 0.32474995
0.034328289 -0.0645025 0.32455552
0.037398882 -0.064575098 0.32491657
0.04044126 -0.064591952 0.3249999
0.043474335 -0.064591944 0.3249999
0.046407837 -0.064691521 0.3249999
0.048613708 -0.065518729 0.32500002
0.073299535 -0.064591952 0.3249999
0.031342052 -0.061558895 0.3249999
0.034375116 -0.061558887 0.3249999
0.037408188 -0.061558884 0.3249999
0.040441263 -0.061558895 0.3249999
0.043474335 -0.061558884 0.3249999
0.045565311 -0.061949503 0.32500002
0.031342048 -0.058525808 0.3249999
0.034375116 -0.058525819 0.3249999
0.037408188 -0.058525808 0.3249999
0.040441263 -0.058525801 0.3249999
0.043474335 -0.058525801 0.3249999
0.045519356 -0.058227099 0.32500002
0.037408192 -0.055492744 0.3249999
0.04044126 -0.055492744 0.3249999
0.043474343 -0.05549274 0.3249999
0.046407837 -0.055393174 0.3249999
0.049388826 -0.054633368 0.32499999
0.052386116 -0.054295707 0.32540002
0.055451743 -0.054468255 0.32600001
0.058538411 -0.054959223 0.32600006
0.06143707 -0.055531006 0.32585722
0.064605288 -0.055624276 0.3255854
0.040537871 -0.052584428 0.32577789
0.043541003 -0.052539248 0.32549995
0.046546981 -0.052503604 0.32527772
0.049578771 -0.052499171 0.32524991
0.052455362 -0.052593745 0.32583341
0.055270649 -0.052621081 0.32600012
0.058421452 -0.052654382 0.32584623
0.061542209 -0.052521545 0.32543245
0.049692914 -0.049578667 0.32600012
0.052481774 -0.049578674 0.32600012
0.055270653 -0.04957867 0.32600012
0.058313046 -0.049578674 0.32600012
