# .PCD v0.7 - Point Cloud Data file format
VERSION 0.7
FIELDS x y z
SIZE 4 4 4
TYPE F F F
COUNT 1 1 1
WIDTH 117
HEIGHT 1
VIEWPOINT 0 0 0 1 0 0 0
POINTS 117
DATA ascii
0.1673494 0.0054145739 0.33500001
0.16685313 0.0074988389 0.33500001
0.16478749 0.011450256 0.33500001
0.16655105 0.010624058 0.33496669
0.16412146 0.013900491 0.33485717
0.16645178 0.013560057 0.33418182
0.16161765 0.016964871 0.33500001
0.16367866 0.016510827 0.33459997
0.16650347 0.016481308 0.33400005
0.16133541 0.01952678 0.33500001
0.16358314 0.01936195 0.33440471
0.16650347 0.019338613 0.33399999
0.16077718 0.022655562 0.3346571
0.16362329 0.022424011 0.33405399
0.16650349 0.022455681 0.33399999
0.15815209 0.026140943 0.33482355
0.16050775 0.025581552 0.33404648
0.16362672 0.025511889 0.33361772
0.16653931 0.025527962 0.33399999
0.15553856 0.029557304 0.33500001
0.15755126 0.028773539 0.33420926
0.16050874 0.028555907 0.33307904
0.16367419 0.028603908 0.33300009
0.1664934 0.028642727 0.33345842
0.15523328 0.031663612 0.33486667
0.15733586 0.031469531 0.33374357
0.16056643 0.03145266 0.33300009
0.16364656 0.031420302 0.33303455
0.1665591 0.031570204 0.33371434
0.16879819 0.031365063 0.33442861
0.15293323 0.035810098 0.33500001
0.15475361 0.034609884 0.33461291
0.15744834 0.034366649 0.3339729
0.16048196 0.034376722 0.33372217
0.16361131 0.034382269 0.33409372
0.16634534 0.034338154 0.33472732
0.15258874 0.037808686 0.33450004
0.15441841 0.03744559 0.33333334
0.15741372 0.03744993 0.33317152
0.16063164 0.037442211 0.33387494
0.16330115 0.037254311 0.33438101
0.16543882 0.036331166 0.33500001
0.15251382 0.040522318 0.33457148
0.15450589 0.040517684 0.33349997
0.15735245 0.040557235 0.33332366
0.1604141 0.040553886 0.33396554
0.16234742 0.039339781 0.33400002
0.15243335 0.04334392 0.3346667
0.1545548 0.043495864 0.33400005
0.15736729 0.043460049 0.33399999
0.1595767 0.042803183 0.33400002
0.15257479 0.045696862 0.33490002
0.15449674 0.046087742 0.33460873
0.15678923 0.045809843 0.33484617
0.16714738 0.004754853 0.3366428
0.16867098 0.0037128613 0.33625001
0.16432574 0.0083191385 0.33707142
0.16580784 0.0072946176 0.33627775
0.1636537 0.010648379 0.33648658
0.16554071 0.0096552614 0.33600003
0.16173458 0.014088352 0.33640003
0.16279209 0.013172017 0.33611763
0.16059285 0.016596489 0.3366563
0.16244853 0.01518634 0.33600006
0.15834261 0.019910537 0.33783337
0.15983631 0.0193701 0.3365556
0.15820651 0.022822242 0.33726081
0.15940721 0.022167606 0.33619997
0.15547845 0.02617093 0.33770004
0.15729587 0.025248444 0.33674073
0.15475339 0.028511029 0.33665511
0.15629321 0.027787328 0.336
0.15189579 0.03196194 0.33727992
0.15405148 0.031389497 0.33634484
0.14939596 0.0349917 0.33800003
0.15157676 0.034560643 0.33700001
0.15375559 0.034035556 0.336
0.14907639 0.037460584 0.33799997
0.15104136 0.037281524 0.33697301
0.14904094 0.040717807 0.33780766
0.15091269 0.040418945 0.33650002
0.14892732 0.043559637 0.33777773
0.15085891 0.043504149 0.33644444
0.14652945 0.04664544 0.338
0.14861855 0.046380393 0.33771425
0.15139233 0.046716169 0.33650002
0.15423901 0.047741309 0.336
0.15626417 0.047675982 0.33600003
0.1483424 0.049390391 0.33699992
0.15133134 0.049288109 0.3369354
0.15411974 0.04890655 0.33645451
0.16760629 -0.0033284265 0.34100002
0.16749263 -0.0015478025 0.34100005
0.16047616 0.0014433535 0.34050006
0.16218865 0.001293619 0.34100005
0.16731021 0.0017099017 0.34093755
0.16044872 0.004313732 0.3409546
0.1641587 0.0047454196 0.34100005
0.16622487 0.0041546109 0.34031251
0.16044594 0.0075447476 0.34099996
0.16321105 0.0073913471 0.34039471
0.16528445 0.0061913943 0.33950001
0.16095352 0.010190695 0.34081256
0.16228683 0.0098996256 0.33990908
0.16066109 0.014500096 0.34033334
0.15835804 0.017016891 0.34005004
0.15989608 0.015755408 0.33983335
0.15766001 0.019519066 0.33940008
0.15574466 0.023652337 0.34
0.15700474 0.022452226 0.33969238
0.15561505 0.024924962 0.33933339
0.15645607 0.024259666 0.33925
0.14856365 0.038083188 0.33900002
0.1479573 0.04045599 0.33900002
0.14684997 0.044674285 0.33900002
0.14761692 0.043236226 0.33900002
0.14684997 0.045201577 0.33900002
