# .PCD v0.7 - Point Cloud Data file format
VERSION 0.7
FIELDS x y z
SIZE 4 4 4
TYPE F F F
COUNT 1 1 1
WIDTH 1049
HEIGHT 1
VIEWPOINT 0 0 0 1 0 0 0
POINTS 1049
DATA ascii
0.042025384 -0.010250669 0.33017048
0.041355573 -0.011878673 0.33003646
0.039888665 -0.01390446 0.32982832
0.032881722 -0.036568779 0.32811233
0.032749206 -0.038058862 0.32802087
0.032595053 -0.042166803 0.32778239
0.031878456 -0.042804595 0.32770032
0.033548795 -0.04308651 0.32779327
0.032279976 -0.044533759 0.32763022
0.092389911 -0.11783687 0.32746223
0.09156134 -0.11812527 0.32739231
0.096166752 -0.11842632 0.32767501
0.094218835 -0.11831208 0.32755476
0.092196822 -0.11832606 0.32742247
0.11082747 -0.11860328 0.32861844
0.10912999 -0.11892083 0.32849044
0.055453371 0.0059097148 0.33294597
0.054007132 0.0049096644 0.33279634
0.078603685 0.019445024 0.33520406
0.075966202 0.018095016 0.33515811
0.073389307 0.016492099 0.33528778
0.070923328 0.014634158 0.33525902
0.068337485 0.01297963 0.33532917
0.065967463 0.011285797 0.3349956
0.063561678 0.0095729977 0.33462572
0.061097756 0.0079153292 0.33432052
0.058583394 0.0063005313 0.3338992
0.056200717 0.0045925826 0.33345792
0.053832144 0.0028287768 0.33307272
0.0515837 0.0009954311 0.33251789
0.04941465 -0.00095345452 0.33217174
0.046867978 -0.0031258538 0.33188534
0.044752948 -0.0045846365 0.33166668
0.043388613 -0.0060085319 0.33149871
0.089423232 0.022880666 0.33693495
0.087434173 0.022396326 0.33648211
0.084869601 0.020708814 0.33639717
0.082376882 0.019044064 0.33635566
0.079932526 0.01738283 0.33631745
0.077395469 0.015971966 0.3364107
0.074650623 0.014781348 0.33645326
0.071927428 0.013122886 0.3364256
0.069491535 0.011438493 0.33617353
0.067055628 0.0097541139 0.33592147
0.064619735 0.0080697127 0.3356694
0.062027436 0.006095238 0.33536875
0.059643969 0.0044085942 0.334975
0.057274181 0.0026032627 0.33471319
0.054890782 0.00078928098 0.33423537
0.052639592 -0.0012242347 0.33376133
0.050396357 -0.0030428842 0.33320144
0.048068181 -0.0048079304 0.33245796
0.045734841 -0.0064711012 0.33173591
0.043519024 -0.0081905052 0.33138594
0.042244233 -0.010017946 0.33120131
0.096420512 0.023508228 0.3375921
0.094454229 0.022452019 0.33740553
0.091624849 0.021369562 0.33725125
0.089025825 0.020161264 0.33757028
0.086233541 0.019048855 0.33768535
0.083309084 0.017708093 0.33742064
0.081001736 0.01614546 0.33718371
0.051072679 -0.0049836114 0.33406264
0.049273126 -0.0068952404 0.33357441
0.047176052 -0.008865431 0.33290151
0.044797592 -0.010523956 0.33236912
0.042714074 -0.012339119 0.33159959
0.040874787 -0.014474098 0.33096749
0.039024353 -0.016177693 0.33064941
0.10064989 0.023961678 0.33707359
0.098123379 0.022822484 0.33744785
0.095723122 0.021068282 0.33782735
0.093055725 0.020064197 0.3381227
0.09095744 0.019325808 0.33800793
0.047442161 -0.010734171 0.33350676
0.045799214 -0.012716953 0.33328968
0.043888174 -0.014629692 0.3327693
0.041522644 -0.016444949 0.33185685
0.039152257 -0.018223232 0.33112004
0.037709415 -0.020316061 0.33053455
0.10470222 0.023478828 0.33772945
0.10275866 0.022660971 0.33767039
0.098660022 0.020483568 0.33857313
0.097534686 0.020206138 0.33848456
0.043950193 -0.016702097 0.33294785
0.042645961 -0.018653717 0.33273718
0.040832125 -0.02060429 0.3319124
0.038270459 -0.022293421 0.33100635
0.10890314 0.022720605 0.3387183
0.1064874 0.021662921 0.33887684
0.10420111 0.021226443 0.33897477
0.041404866 -0.02252423 0.33245856
0.039589055 -0.024670992 0.33182672
0.037640497 -0.026562653 0.33100271
0.11310483 0.022028007 0.33907977
0.11070958 0.020577706 0.33936185
0.10860786 0.020238549 0.33920634
0.038434505 -0.028406635 0.33166808
0.036497883 -0.030430675 0.32983825
0.034548514 -0.032338619 0.32945952
0.1172186 0.021255925 0.33935103
0.11471702 0.020077012 0.33957696
0.11265138 0.019601747 0.33943385
0.036981508 -0.032786898 0.32959291
0.035983816 -0.034778144 0.3301914
0.034028232 -0.036474377 0.32932681
0.0326868 -0.038617149 0.32898942
0.12138768 0.020510674 0.33961383
0.11905164 0.019258887 0.33983094
0.036405884 -0.036728978 0.33033994
0.035081789 -0.038861331 0.3299517
0.033262037 -0.040577017 0.32912239
0.031860054 -0.042148694 0.32873929
0.12558183 0.019479372 0.33934039
0.12294823 0.018628836 0.33989349
0.036377475 -0.041302621 0.33105499
0.03422378 -0.041953348 0.32921752
0.032444805 -0.046138458 0.32855543
0.12751351 0.018254489 0.33932167
0.033246823 -0.0477525 0.32851788
0.032238238 -0.048824277 0.32839271
0.13157503 0.016662195 0.3401885
0.034652017 -0.050253347 0.32920006
0.033295795 -0.051539313 0.32886478
0.13559595 0.015763719 0.34015018
0.13368414 0.014709473 0.34052935
0.036506601 -0.052612226 0.33046681
0.034765951 -0.053909853 0.32971454
0.1373422 0.013455845 0.34063342
0.13543923 0.012995545 0.34054816
0.038097113 -0.055240944 0.33042404
0.036482692 -0.056374766 0.33025602
0.14141722 0.012578685 0.34052226
0.13939071 0.011913668 0.34074494
0.037315257 -0.058765437 0.3300485
0.14346273 0.010380346 0.34092444
0.037965797 -0.060920313 0.32909602
0.14527118 0.0089134946 0.34096044
0.038534485 -0.06575729 0.32882679
0.039411478 -0.06803415 0.32879442
0.039430782 -0.072342351 0.32794729
0.15292895 0.002277907 0.34108934
0.041115388 -0.075420313 0.3278923
0.15472037 -0.00028663129 0.3410632
0.043382406 -0.077359349 0.32896078
0.15809059 -0.0016999245 0.34120375
0.15645143 -0.0025148392 0.34105185
0.044597842 -0.07987842 0.32915595
0.042872719 -0.081171036 0.32777032
0.15992114 -0.0038881935 0.3412011
0.1582346 -0.005101487 0.34102395
0.046400487 -0.082316637 0.32903355
0.044609576 -0.083647579 0.32778606
0.16179748 -0.0062660649 0.34115225
0.16000047 -0.0075709186 0.34100145
0.048136484 -0.085041873 0.32913056
0.046290848 -0.086195424 0.327889
0.16116431 -0.010165591 0.34093282
0.049625605 -0.087097466 0.32878572
0.048042923 -0.088626266 0.32758594
0.16494481 -0.011351027 0.34092596
0.16308942 -0.012364682 0.34093571
0.050919939 -0.089971423 0.32746243
0.049842235 -0.09117049 0.32725871
0.16524468 -0.015179384 0.34091932
0.053099982 -0.092712119 0.32802159
0.051504713 -0.093440309 0.32728055
0.16653407 -0.017738739 0.34086081
0.054433942 -0.094778277 0.3280609
0.053262804 -0.095941797 0.32725471
0.16837248 -0.020134415 0.34084713
0.059630498 -0.096452266 0.32953233
0.057229243 -0.097277358 0.3281399
0.054808039 -0.098393083 0.32711342
0.16977406 -0.022829672 0.34076679
0.16865692 -0.024917619 0.34059963
0.060248561 -0.097522125 0.3294602
0.058993906 -0.099268377 0.32806343
0.05671227 -0.10048504 0.3271111
0.17134361 -0.025311435 0.34069395
0.16957727 -0.0265323 0.34056967
0.062980562 -0.10163075 0.32845855
0.060659796 -0.10188542 0.32788494
0.17259514 -0.02785507 0.3403621
0.17115821 -0.029239835 0.3405219
0.066777319 -0.10245717 0.32966313
0.064715378 -0.10284463 0.32912797
0.17401096 -0.030567424 0.34059083
0.17232531 -0.031877745 0.34045109
0.17125443 -0.033284478 0.34030321
0.17524266 -0.032875471 0.34058529
0.17392921 -0.034309328 0.34042016
0.1728695 -0.036353324 0.34023756
0.17504382 -0.036933191 0.34019861
0.17339738 -0.038467027 0.34014317
0.17231762 -0.040318348 0.33998117
0.17456424 -0.040690877 0.33952966
0.17289717 -0.042546544 0.33989495
0.17423648 -0.045214806 0.33955228
0.17276159 -0.04723838 0.33962521
0.17542568 -0.04761317 0.33895028
0.17355376 -0.049453702 0.33935839
0.17223638 -0.051421523 0.33935842
0.17491052 -0.051832251 0.33871806
0.17294616 -0.053706005 0.33920833
0.17167255 -0.055734642 0.33908191
0.086781204 -0.11357581 0.33029523
0.1742852 -0.055917479 0.33849552
0.17212507 -0.057861824 0.33885992
0.17015158 -0.059967086 0.33874765
0.090536222 -0.11468254 0.33040518
0.08832106 -0.11560582 0.32954457
0.17354318 -0.059970301 0.33803251
0.17118821 -0.061818205 0.33825749
0.16977668 -0.063329361 0.33853629
0.096961215 -0.11482981 0.33093765
0.094777748 -0.11541049 0.33046034
0.092499517 -0.11627258 0.3295787
0.090102084 -0.11746403 0.32860765
0.17270371 -0.064185865 0.33774155
0.17060956 -0.066148549 0.33813146
0.16870219 -0.068392709 0.33818483
0.16722414 -0.069857702 0.33800727
0.10155117 -0.11462488 0.33124748
0.099067152 -0.1155805 0.33056051
0.09672787 -0.11688825 0.32946455
0.094521001 -0.11779839 0.32877675
0.1732544 -0.066434197 0.33758613
0.17188059 -0.068446264 0.33738479
0.16960645 -0.07006529 0.33735642
0.16755366 -0.071075216 0.33796099
0.10801876 -0.11441072 0.33167994
0.1055447 -0.1151524 0.33141306
0.10319635 -0.11619835 0.33078465
0.10081663 -0.11767251 0.32963455
0.098487549 -0.11892843 0.32881513
0.096474156 -0.11940752 0.3286441
0.17099798 -0.0724518 0.33664626
0.16896373 -0.074671239 0.33697438
0.16671826 -0.076244816 0.33731323
0.1645555 -0.078133419 0.33732161
0.16281001 -0.079799727 0.33716735
0.11238504 -0.11435585 0.3318916
0.10997207 -0.11530394 0.33127934
0.10737628 -0.11681832 0.3305662
0.10498211 -0.11834082 0.32961556
0.10277817 -0.11864561 0.32925078
0.16964874 -0.075904228 0.33682501
0.16747127 -0.078463748 0.33654112
0.16576584 -0.080128565 0.33644113
0.16336785 -0.081863612 0.33665997
0.16141014 -0.08385998 0.33683228
0.15926871 -0.086199254 0.3365812
0.1215329 -0.11204454 0.33269024
0.11926074 -0.11321257 0.33243656
0.11664559 -0.11455088 0.3319017
0.11413147 -0.11586949 0.33124918
0.11170959 -0.11760122 0.33020833
0.10896993 -0.11847919 0.32954481
0.10654502 -0.11960343 0.32928807
0.16474544 -0.084064715 0.33586866
0.16247015 -0.086002156 0.33585221
0.15989141 -0.087772042 0.33597383
0.15758571 -0.089590207 0.33586192
0.15542175 -0.091524459 0.33585352
0.15316802 -0.093475342 0.33577988
0.15099853 -0.095411025 0.33553118
0.14841604 -0.097317204 0.33525723
0.14707629 -0.098243624 0.33511862
0.13292433 -0.10784878 0.33366427
0.13081655 -0.10902236 0.33346194
0.1282372 -0.11061651 0.33309799
0.12569311 -0.11196874 0.33273408
0.12312185 -0.11328491 0.33228755
0.12066561 -0.11483913 0.33166441
0.11833824 -0.11655207 0.33073428
0.11582266 -0.11775165 0.33015341
0.11351717 -0.11877867 0.32978728
0.15905538 -0.091750994 0.33500394
0.1567774 -0.093604252 0.33473653
0.1544071 -0.09530919 0.33487761
0.15194529 -0.097029015 0.33505765
0.1494602 -0.098801255 0.33495703
0.14704882 -0.10053056 0.33472782
0.14462963 -0.10229012 0.33446077
0.1421805 -0.10394002 0.33413085
0.13955911 -0.10556443 0.33381468
0.13705915 -0.10725279 0.3335481
0.13462548 -0.10890394 0.33324772
0.13210776 -0.11060485 0.332674
0.12970202 -0.11220086 0.33211416
0.12725013 -0.11384674 0.33179736
0.12466336 -0.11503649 0.3316507
0.079561561 0.01536756 0.33805045
0.077575102 0.014411017 0.33786806
0.075073898 0.013316691 0.33774182
0.072585091 0.011896763 0.33774692
0.070142433 0.010208175 0.33752748
0.067688987 0.0085116625 0.33727369
0.06523554 0.0068151839 0.3370198
0.062914215 0.0050158836 0.33666748
0.060503431 0.003118135 0.33629462
0.058180932 0.0013516024 0.33588085
0.055827402 -0.00041678548 0.3356294
0.053646542 -0.0022169352 0.33538747
0.052136596 -0.0035963394 0.33521262
0.088928238 0.018575281 0.33883786
0.086446196 0.017651118 0.33870238
0.083935887 0.016459487 0.33871976
0.081536844 0.014722668 0.33886272
0.079068907 0.013058897 0.33905166
0.076535389 0.011548944 0.33910131
0.073924921 0.0099154338 0.33884266
0.071500473 0.0081318244 0.33876002
0.068949267 0.0065222606 0.33873719
0.066360056 0.0049629696 0.33843505
0.063922241 0.0032572486 0.33799109
0.061480165 0.0013855025 0.33770984
0.059294228 -0.00052176788 0.33720225
0.056917597 -0.0022538044 0.33666578
0.054472238 -0.0039561242 0.33627653
0.052241709 -0.0056636073 0.33553171
0.050263926 -0.0078517012 0.33489785
0.04848028 -0.0095589124 0.3346433
0.095752165 0.019521765 0.33933422
0.093294911 0.018650666 0.33927175
0.09065821 0.017419286 0.33974129
0.088147417 0.015782546 0.34010461
0.085464008 0.014542267 0.34006557
0.082802668 0.013176028 0.34009391
0.080282986 0.011685561 0.33989993
0.07858178 0.010721687 0.33973572
0.059825212 -0.0023893304 0.33778697
0.057688888 -0.0040190034 0.33755749
0.055418652 -0.00615393 0.33729127
0.053411972 -0.0079742335 0.3368195
0.051246803 -0.0097462609 0.33611426
0.048953515 -0.011484414 0.33505982
0.046917789 -0.0133559 0.33443549
0.044967663 -0.015545959 0.33408192
0.10192784 0.019936182 0.33975884
0.099754676 0.019300543 0.33974946
0.09722732 0.018318817 0.34029123
0.09452904 0.017147645 0.34062821
0.092002615 0.015849061 0.34084076
0.089857548 0.014743563 0.34069255
0.051776405 -0.011529926 0.33675531
0.049897168 -0.013900291 0.33641288
0.048051037 -0.015650464 0.33573508
0.04561089 -0.017281871 0.33456638
0.043784469 -0.019151071 0.33383647
0.042547911 -0.021124048 0.33361441
0.10587038 0.019172259 0.34097636
0.10359167 0.018811256 0.34065369
0.10122377 0.01762256 0.3410947
0.099010661 0.016916059 0.34140852
0.050578628 -0.016074317 0.33642471
0.049098708 -0.017564813 0.33622122
0.046932261 -0.019556886 0.33568257
0.044824142 -0.021531992 0.33502185
0.042603038 -0.023213176 0.33404636
0.040749699 -0.025281562 0.33337533
0.039474115 -0.026881956 0.33309433
0.11102235 0.019121468 0.34030488
0.10748489 0.017758958 0.34148607
0.10542975 0.017094009 0.34169438
0.10292467 0.016360074 0.3416321
0.045676842 -0.02374579 0.33567947
0.043937568 -0.025657758 0.33508939
0.041664548 -0.027359074 0.33416203
0.039731406 -0.028927814 0.33331734
0.11468615 0.018664852 0.34074768
0.11209843 0.017671637 0.34130722
0.10964087 0.016466722 0.34199259
0.10747706 0.016021222 0.34190926
0.044567075 -0.027715925 0.33538643
0.042583212 -0.029361675 0.33501649
0.040558994 -0.031045541 0.3339968
0.03899309 -0.033775203 0.33301425
0.11860799 0.017940849 0.34086058
0.11622099 0.016959615 0.34150854
0.11399405 0.015615728 0.34222069
0.039482094 -0.036048219 0.33361965
0.038628742 -0.037141711 0.33341959
0.12220933 0.016825654 0.34132278
0.12039312 0.016185813 0.34163821
0.11799477 0.01484685 0.34233546
0.11593005 0.014250524 0.34236041
0.043463696 -0.037632719 0.33476317
0.041868024 -0.038426675 0.33461544
0.039606608 -0.039762106 0.33378714
0.037343562 -0.042128161 0.33210793
0.12420747 0.014559224 0.34275618
0.12225863 0.01402805 0.34258798
0.12005596 0.013708524 0.34259853
0.043028384 -0.040440548 0.33423331
0.040888056 -0.042229712 0.33331481
0.038669787 -0.043993641 0.3322877
0.037511416 -0.045747429 0.33191758
0.13134333 0.014849499 0.34138861
0.12924346 0.013416663 0.34184149
0.12578596 0.012671243 0.34289348
0.12445293 0.012466975 0.3428154
0.040994935 -0.04430991 0.33322766
0.039934352 -0.046551637 0.33257177
0.038343579 -0.048274327 0.33190194
0.037070043 -0.050338902 0.33163351
0.13260067 0.013502661 0.34153241
0.13043924 0.012381777 0.34202039
0.12835523 0.011816241 0.34202927
0.038847215 -0.049466535 0.33204851
0.03669659 -0.051267739 0.33155757
0.13743903 0.011799712 0.34161535
0.13383521 0.011985905 0.34176108
0.13214579 0.011028737 0.34223196
0.041876316 -0.053796809 0.33376113
0.038797587 -0.056336544 0.33141232
0.14089155 0.010736264 0.34178069
0.13892311 0.01064112 0.34164754
0.042200875 -0.055293106 0.33358994
0.039462693 -0.056642577 0.33163926
0.038105331 -0.057726126 0.33129001
0.14246196 0.0093081556 0.34180334
0.14101663 0.0086910203 0.34199372
0.14682887 0.0077989474 0.34200343
0.1446539 0.0073299408 0.34187919
0.14266655 0.0061719343 0.34247336
0.042308077 -0.064134933 0.3326706
0.14713588 0.0071233101 0.34198579
0.14595382 0.0058671646 0.34186351
0.14416713 0.004935082 0.34238797
0.043062299 -0.066542454 0.3321642
0.042029787 -0.068107046 0.33197156
0.14779969 0.000594493 0.3436732
0.14703399 0.00043205544 0.34361437
0.044699654 -0.068889335 0.33265111
0.04318279 -0.070275158 0.33150774
0.15236036 0.00029060617 0.34201241
0.14962827 -0.00045504794 0.34326231
0.1480377 -0.00084496289 0.34360868
0.046100456 -0.071497068 0.33272886
0.044434689 -0.073033221 0.33145049
0.1533365 -0.0011472404 0.34216627
0.15143283 -0.0024077706 0.34314248
0.1503157 -0.0039541125 0.34358382
0.045688428 -0.075681798 0.3308197
0.04459808 -0.077081472 0.33063579
0.15546954 -0.0037213974 0.3420521
0.15322132 -0.0049608834 0.34325051
0.15148139 -0.0057321452 0.34356079
0.047362387 -0.078302681 0.33123839
0.045752052 -0.079497352 0.33057654
0.15692483 -0.0060261041 0.34203658
0.15499648 -0.007255964 0.34302127
0.15335323 -0.0079524778 0.34355897
0.050896917 -0.079826981 0.33289999
0.049127813 -0.08058618 0.33176291
0.047497585 -0.081809953 0.33056137
0.15886828 -0.0083694607 0.34188721
0.157372 -0.0084407292 0.34178585
0.052226257 -0.082030736 0.33286387
0.050818443 -0.083024889 0.33190775
0.049147032 -0.084330812 0.3305954
0.15944254 -0.010036003 0.34183174
0.053789068 -0.084451944 0.33283085
0.052569121 -0.08544156 0.33204278
0.050855294 -0.086418547 0.33087158
0.16278066 -0.014075425 0.34189579
0.16035917 -0.015561417 0.34334567
0.15930091 -0.016716283 0.34345832
0.055977579 -0.087461524 0.33280578
0.054381449 -0.087907061 0.33215016
0.052343417 -0.087764069 0.33154899
0.16378571 -0.015739283 0.34209681
0.16178623 -0.017321326 0.34308457
0.16040555 -0.018399289 0.34343657
0.057226881 -0.088784873 0.33281341
0.056125224 -0.090111263 0.33212551
0.16543478 -0.018777166 0.34190977
0.16349803 -0.01977329 0.34303311
0.1619671 -0.020852128 0.34340173
0.057826716 -0.093250036 0.33084765
0.16709223 -0.020910695 0.34172437
0.16518904 -0.022104746 0.34226975
0.16348183 -0.023105251 0.34337488
0.058977939 -0.095333584 0.33055583
0.058169585 -0.096228868 0.33045343
0.16825083 -0.023015488 0.34168261
0.16686112 -0.024547407 0.34200415
0.16505776 -0.025857477 0.34332442
0.063496068 -0.096749499 0.33265278
0.062404215 -0.097717166 0.33181694
0.16915098 -0.027452486 0.34149444
0.16633709 -0.029957542 0.34317946
0.064568818 -0.098363891 0.33191404
0.063545793 -0.098921835 0.33165687
0.16974686 -0.029746853 0.34148791
0.16787463 -0.031288594 0.34248328
0.16631724 -0.032690596 0.34302628
0.068020284 -0.09959358 0.33291414
0.067067891 -0.10112408 0.33176345
0.17067626 -0.031888891 0.34134692
0.16969556 -0.03344582 0.34161988
0.16715798 -0.034439929 0.34298363
0.067519084 -0.10322979 0.33067203
0.17253175 -0.034948252 0.34129742
0.17149118 -0.036129508 0.34116423
0.1696808 -0.038482483 0.34126046
0.17191228 -0.038464177 0.34106156
0.17046356 -0.040303864 0.34105667
0.16925234 -0.041591167 0.34121659
0.171527 -0.042641785 0.34080419
0.17041939 -0.043240681 0.3406989
0.16922385 -0.049500395 0.34153849
0.16770235 -0.050915979 0.34210271
0.17201003 -0.049213149 0.34047017
0.17060758 -0.051119212 0.34075263
0.16830084 -0.052962434 0.34154958
0.16676788 -0.054728337 0.34183002
0.086438991 -0.10966272 0.33254814
0.084826574 -0.11055048 0.33236155
0.17149937 -0.053448923 0.34020138
0.16996472 -0.055190321 0.34041339
0.16831058 -0.05682832 0.34070528
0.087907486 -0.11233918 0.33149111
0.086685285 -0.1122992 0.33150309
0.17073223 -0.057238892 0.33994076
0.16904703 -0.059197843 0.33972242
0.16752368 -0.06062435 0.33954388
0.16469683 -0.06430766 0.34116253
0.097895436 -0.11021184 0.33426619
0.095918767 -0.11140531 0.33404806
0.093186483 -0.11247982 0.33293068
0.090546787 -0.11372027 0.33158603
0.088397458 -0.11393953 0.33143398
0.16915202 -0.061440937 0.33960435
0.16851717 -0.063779742 0.33965611
0.16608034 -0.065673694 0.34083524
0.16428025 -0.067593135 0.34095287
0.16292663 -0.069324337 0.34076846
0.10222206 -0.1104862 0.33453232
0.099714167 -0.1115063 0.33402056
0.097247019 -0.11295805 0.33314058
0.094806328 -0.1142179 0.33215651
0.092459232 -0.11471488 0.33165497
0.16927591 -0.06575051 0.33937269
0.16755664 -0.067702174 0.33976573
0.16531606 -0.069711521 0.34030351
0.16312805 -0.071567684 0.3405481
0.1614304 -0.073642865 0.340431
0.10855746 -0.11022297 0.33495882
0.10637458 -0.11087139 0.33459207
0.10388272 -0.11208724 0.33373538
0.10141659 -0.11333618 0.3326773
0.098784491 -0.1143655 0.33215111
0.096878745 -0.11517021 0.33191699
0.16646165 -0.071964346 0.33894464
0.16455719 -0.073760092 0.33921352
0.16208903 -0.075540528 0.33982092
0.16010183 -0.077533603 0.33994961
0.15811545 -0.079498559 0.33988991
0.1565913 -0.081045642 0.33970466
0.11560409 -0.10915168 0.33547658
0.11328297 -0.11018799 0.33526817
0.11054694 -0.11146274 0.33468175
0.10818233 -0.11282925 0.3335914
0.10570513 -0.113929 0.33274049
0.10335441 -0.11441131 0.33238029
0.16720185 -0.074049972 0.33877632
0.16561683 -0.075494722 0.33859289
0.16344553 -0.077345505 0.33864576
0.16138189 -0.079503313 0.33873749
0.15908682 -0.08127819 0.33916801
0.15676205 -0.083140925 0.33936146
0.1546569 -0.085130185 0.33930293
0.15287569 -0.086813301 0.33914232
0.12228802 -0.10794668 0.33597818
0.11966603 -0.10915459 0.33569884
0.11721763 -0.11030176 0.33515349
0.11472915 -0.11198309 0.33438039
0.11231016 -0.11319579 0.3334941
0.10970894 -0.11409213 0.33281118
0.16177692 -0.081554741 0.33800626
0.16012163 -0.083492965 0.33798149
0.15813182 -0.085447647 0.33799127
0.15566954 -0.08706104 0.33814299
0.15336147 -0.088886805 0.33844891
0.15109047 -0.090851784 0.33852115
0.14878273 -0.092778683 0.33830756
0.14646138 -0.094532683 0.33822262
0.14387777 -0.096456021 0.3380211
0.14137633 -0.098173052 0.33776295
0.13890216 -0.099883869 0.33750695
0.13621637 -0.1015672 0.33723873
0.13376731 -0.10314009 0.33688638
0.13132516 -0.10472359 0.33660179
0.12876368 -0.10633507 0.33623809
0.12611689 -0.10777558 0.33583546
0.12378968 -0.10935003 0.33516276
0.12129321 -0.11072306 0.33458111
0.11866663 -0.11209262 0.33388409
0.1163018 -0.11331993 0.3334333
0.11442032 -0.11417995 0.33311266
0.15823829 -0.08751297 0.33744478
0.15652768 -0.088877469 0.33725765
0.15426138 -0.090757146 0.33711728
0.15217325 -0.092653275 0.33705783
0.14993951 -0.094638996 0.33695501
0.1475054 -0.096307844 0.33697173
0.14510244 -0.098067977 0.33695698
0.14264229 -0.099752694 0.33665428
0.14016846 -0.10144329 0.33637691
0.13769548 -0.10311048 0.33604619
0.13526429 -0.10476583 0.3356086
0.13279746 -0.10644464 0.33529097
0.13025117 -0.10795076 0.33490831
0.12771159 -0.10939427 0.33451572
0.12524123 -0.11075842 0.33406383
0.12332626 -0.1117449 0.33382717
0.14586791 -0.099829078 0.33595553
0.14374088 -0.10135175 0.33573252
0.14129221 -0.10304496 0.33547914
0.13901927 -0.10455611 0.33524731
0.13630985 -0.10630856 0.33497372
0.1345958 -0.10749381 0.33479634
0.076785691 0.0099274218 0.34057838
0.074661374 0.0085486434 0.34036362
0.072177455 0.0066729411 0.34009776
0.069650412 0.0050458424 0.33984298
0.067240819 0.0035991296 0.3396059
0.064792633 0.0019353665 0.33935422
0.062504701 0.00025828183 0.33911216
0.060967345 -0.0011708923 0.33893266
0.087745473 0.013933234 0.34151381
0.085787743 0.013089478 0.34133962
0.08321856 0.01179323 0.3411158
0.080664977 0.010199524 0.34100002
0.078151681 0.0087063089 0.34098363
0.0756993 0.0070108846 0.3409878
0.073222287 0.0052765906 0.34060472
0.070799708 0.003554862 0.34037346
0.068295978 0.0019219145 0.3403008
0.065770455 0.00017315149 0.34020403
0.063302457 -0.0015480965 0.33977601
0.060997006 -0.0032359399 0.33918658
0.058670737 -0.0050857738 0.33887705
0.056562427 -0.0068822913 0.33841819
0.054561045 -0.0088429712 0.33808947
0.096704178 0.016531073 0.34224078
0.09491872 0.015683811 0.34207761
0.092379451 0.014372215 0.34198281
0.089718983 0.013028484 0.34198147
0.087178655 0.011429276 0.34196705
0.084609285 0.0097156279 0.34218931
0.082145885 0.0079652481 0.34240422
0.079694226 0.0064772889 0.34240142
0.076978058 0.005028192 0.34231061
0.07439056 0.0033278838 0.34189829
0.07187815 0.0017009191 0.34177315
0.06936191 6.268546e-05 0.34155437
0.067067847 -0.0017672032 0.34130332
0.064638712 -0.0035499781 0.34090686
0.062273268 -0.0054301508 0.34043139
0.059985612 -0.0072672367 0.34016901
0.057583641 -0.0089905187 0.33952793
0.055156615 -0.010713164 0.33869016
0.052827928 -0.012517836 0.33804941
0.051029555 -0.014163855 0.33756399
0.10082605 0.015845805 0.34247068
0.098568901 0.015427481 0.34233639
0.096287444 0.01400945 0.34258023
0.093885891 0.012355991 0.34310874
0.091331519 0.010795362 0.34331131
0.088400528 0.0097422525 0.34333065
0.085553631 0.0081153214 0.34305504
0.083417259 0.0066810586 0.34283638
0.060090877 -0.0093053952 0.34043062
0.058530357 -0.010965444 0.34023684
0.056587111 -0.01301292 0.33981058
0.054302149 -0.014977701 0.33920401
0.052021924 -0.01666625 0.33826259
0.049982831 -0.01865495 0.33770496
0.048066776 -0.020486942 0.33713439
0.105281 0.01561068 0.34282452
0.10279687 0.014791291 0.3430419
0.10034682 0.013208371 0.34351414
0.09773314 0.012000814 0.3438957
0.095158428 0.010857828 0.34383211
0.093241565 0.009890724 0.34365368
0.054734036 -0.016860828 0.33966213
0.052995697 -0.018790079 0.33942309
0.05112895 -0.020861965 0.33893242
0.048842814 -0.022395432 0.33784086
0.046796847 -0.024229607 0.33692959
0.045413628 -0.026175518 0.3365308
0.10949354 0.015070774 0.34308913
0.10700208 0.014210444 0.34347057
0.10452192 0.012417942 0.34403518
0.10237527 0.011344057 0.34432837
0.05166037 -0.022860061 0.33912864
0.049869604 -0.023886655 0.33845329
0.047364797 -0.02550876 0.33739731
0.045601118 -0.026645362 0.33651686
0.11340981 0.014284492 0.34328815
0.111219 0.0134665 0.34398761
0.10868019 0.011920746 0.34443939
0.10615927 0.010825116 0.34448981
0.11793713 0.013372995 0.34353989
0.11537002 0.012520432 0.34419489
0.11273214 0.011564959 0.3448379
0.11058817 0.010864273 0.34483573
0.12191672 0.012483496 0.34382239
0.11955967 0.011804048 0.34446746
0.11717084 0.010777071 0.34514728
0.12351277 0.011023894 0.3442153
0.12125789 0.0095243193 0.34523448
0.11900406 0.0094426386 0.34530389
0.1252009 0.0082133524 0.34563842
0.1230883 0.0083068646 0.34550628
0.12695582 0.0071889423 0.34569559
0.043913525 -0.051789586 0.33601242
0.042348925 -0.053015806 0.33483887
0.13377762 0.0064930692 0.34521043
0.1320141 0.0051866025 0.34578446
0.043190278 -0.055419151 0.33475989
0.13741681 0.004999388 0.34525034
0.13547902 0.0047996193 0.34535274
0.1332622 0.0040061958 0.34592864
0.13900526 0.0031615719 0.34541115
0.13774818 0.0025710016 0.34584153
0.14076662 0.00083392486 0.34607583
0.13954417 0.00032525882 0.3461324
0.14538047 1.6972423e-05 0.3444874
0.14312989 -0.00080195442 0.3452141
0.1407584 -0.0010447167 0.34613517
0.14715734 -0.0020824857 0.34467432
0.14478731 -0.0035503916 0.34588557
0.14871871 -0.0040984116 0.34490183
0.14667305 -0.0055937208 0.34603855
0.14827333 -0.0079610869 0.34623918
0.051525753 -0.076752722 0.33511916
0.15447131 -0.0090377256 0.34457499
0.15261969 -0.0099908486 0.34540522
0.15041281 -0.01071693 0.34622499
0.053677663 -0.077429622 0.33566377
0.05196498 -0.078978918 0.33446926
0.1547178 -0.0094821453 0.34456629
0.15345357 -0.011665501 0.34548441
0.15202634 -0.012729649 0.34621802
0.055344332 -0.079935595 0.335664
0.053254403 -0.081367701 0.33444506
0.052519836 -0.083101675 0.33382708
0.15546873 -0.01474978 0.34587568
0.15369497 -0.015753461 0.34615821
0.056954857 -0.082608834 0.33592194
0.054944754 -0.083921731 0.33453372
0.053729199 -0.084847853 0.3338086
0.15889665 -0.015409682 0.34450838
0.1573005 -0.016560212 0.3451435
0.15534779 -0.018025067 0.34610644
0.058785193 -0.084901974 0.33596
0.056799717 -0.086412355 0.33456266
0.055156261 -0.086996868 0.33378187
0.15899806 -0.01953171 0.34514597
0.15720293 -0.020756712 0.34607619
0.060279094 -0.087303862 0.33597317
0.057764526 -0.087789014 0.33417153
0.16003458 -0.021015272 0.34499744
0.15861613 -0.023200097 0.34604949
0.062317111 -0.089859515 0.3360194
0.16256467 -0.02484349 0.344987
0.16012989 -0.025758214 0.34576249
0.15917221 -0.027631981 0.34585389
0.066252455 -0.091139041 0.33628035
0.064303815 -0.092020571 0.33561552
0.063203856 -0.094096452 0.33468238
0.16371356 -0.026615864 0.34459981
0.16180512 -0.028279884 0.34551877
0.16024706 -0.029479016 0.34582108
0.067971408 -0.093158327 0.33627969
0.06579788 -0.093728706 0.33561558
0.063638061 -0.09484975 0.33404005
0.16543651 -0.02979826 0.34417525
0.1634858 -0.030742332 0.34502989
0.16158766 -0.032543771 0.34563431
0.069573522 -0.095073313 0.33595371
0.068692699 -0.09755826 0.33407468
0.06697607 -0.09892974 0.3338868
0.16575509 -0.030994613 0.3440876
0.16490996 -0.033201717 0.34419087
0.1628066 -0.034832869 0.34489083
0.16134532 -0.036425218 0.34550619
0.071314305 -0.098119393 0.33471584
0.069168583 -0.098723337 0.33404082
0.067388721 -0.099487633 0.33388263
0.16605334 -0.035713457 0.34384465
0.16444021 -0.037253562 0.34454608
0.16212499 -0.038955435 0.34531367
0.16095012 -0.04071435 0.34524196
0.16680989 -0.037828069 0.34377617
0.16586071 -0.039607085 0.34417048
0.16368307 -0.041446518 0.34476495
0.16221032 -0.042901762 0.34520227
0.16601488 -0.04189726 0.34450185
0.16487452 -0.043928973 0.34489307
0.16338454 -0.045637786 0.34512627
0.16554719 -0.046325736 0.34506154
0.16448775 -0.048202891 0.34478569
0.16296187 -0.050014958 0.34485552
0.1658715 -0.051195428 0.3435508
0.16398467 -0.052403852 0.34408483
0.16234954 -0.054063499 0.34450457
0.16670308 -0.052720156 0.34294105
0.16542022 -0.054654785 0.34303308
0.16317214 -0.05639812 0.34405228
0.16154368 -0.058417257 0.34429607
0.16371642 -0.058310017 0.34368053
0.16215284 -0.060473174 0.34415597
0.16036452 -0.062538333 0.34399003
0.15908317 -0.064342618 0.34380656
0.10084224 -0.10465665 0.33777767
0.098362371 -0.10523497 0.33751488
0.09603256 -0.10630202 0.33653545
0.16345966 -0.064071991 0.34247524
0.16170907 -0.064726576 0.34317026
0.15959246 -0.066655979 0.34358537
0.15824901 -0.06868194 0.34351102
0.10465695 -0.10490937 0.33801168
0.10272549 -0.10571539 0.33753648
0.10027933 -0.10731947 0.33669582
0.098164365 -0.10859866 0.33550599
0.16435698 -0.065205052 0.34209421
0.16300347 -0.067048721 0.34207493
0.16090131 -0.068990238 0.3425501
0.15859054 -0.07087107 0.34307349
0.15665582 -0.073034085 0.34316537
0.15509805 -0.074661024 0.34297362
0.10914307 -0.10632943 0.33822438
0.10681459 -0.10680594 0.33743304
0.10439476 -0.10786714 0.3361184
0.10198113 -0.10931208 0.33566177
0.099587768 -0.11005337 0.33538866
0.16321233 -0.069275834 0.34179339
0.16184971 -0.070973888 0.34161043
0.16001987 -0.073038772 0.34172386
0.15779264 -0.074853778 0.3422094
0.15547456 -0.076636449 0.34252241
0.15327664 -0.078579351 0.34257132
0.1511959 -0.080449626 0.34239799
0.11807442 -0.10375632 0.33894822
0.11629942 -0.10485947 0.33877146
0.11346347 -0.10622528 0.33851108
0.11105059 -0.10736529 0.33785909
0.10870919 -0.10863741 0.33662337
0.10603257 -0.10966316 0.33582944
0.10388038 -0.11039512 0.33564878
0.16035391 -0.075172141 0.34127963
0.15890479 -0.076701537 0.34112269
0.15693428 -0.078758538 0.34121981
0.15454899 -0.080647826 0.34157717
0.15208104 -0.082476035 0.34196121
0.14994927 -0.084412657 0.34198201
0.14769663 -0.086480573 0.34183505
0.14570595 -0.088157378 0.34161237
0.13238193 -0.097589955 0.34022143
0.13043399 -0.098771259 0.34002909
0.12802354 -0.10041733 0.33978081
0.12534171 -0.10191005 0.33952343
0.12270375 -0.10320221 0.33902627
0.12011521 -0.10458253 0.33858794
0.11758107 -0.10627644 0.33804795
0.11506544 -0.10781509 0.33751521
0.11267365 -0.10904506 0.33680394
0.11030877 -0.11009351 0.33608359
0.15696868 -0.080971584 0.34073699
0.15547995 -0.082484439 0.34055609
0.15350124 -0.084504068 0.34056911
0.1512225 -0.086503044 0.34067121
0.14886096 -0.088285297 0.34078246
0.14644977 -0.089910336 0.34095895
0.14409429 -0.0917328 0.34086955
0.14151174 -0.09351854 0.34062752
0.13900857 -0.095204547 0.34038335
0.13659377 -0.096907541 0.34010607
0.1340688 -0.098454483 0.33991802
0.13160023 -0.10027173 0.33938706
0.12919588 -0.10194609 0.33901116
0.12678562 -0.1035914 0.33859771
0.1243693 -0.1052295 0.33790919
0.12179205 -0.10686649 0.33734104
0.11924359 -0.108079 0.33686373
0.11691476 -0.10887314 0.33658096
0.15167576 -0.088426143 0.33997828
0.14995526 -0.090048864 0.33977622
0.14760737 -0.091842383 0.33966485
0.1453279 -0.093680769 0.33957425
0.14295527 -0.095434591 0.33956885
0.14056075 -0.097139336 0.33922517
0.13814463 -0.098822661 0.33891156
0.13564166 -0.10038006 0.33853775
0.13312833 -0.10195979 0.33812442
0.13056666 -0.10365511 0.33775881
0.12810148 -0.10519376 0.33751303
0.12562074 -0.10657714 0.33727467
0.12375516 -0.10762737 0.33709499
0.08187075 0.0059105679 0.34369662
0.080125295 0.0050157569 0.34353334
0.077601336 0.0035855584 0.34328967
0.075206973 0.0020518415 0.34304869
0.072711587 0.00037676841 0.34279329
0.070221856 -0.0012238547 0.34254238
0.067848586 -0.0031014942 0.34228367
0.065446481 -0.0048846528 0.34202832
0.063183725 -0.0065684989 0.34178755
0.061148737 -0.0082310699 0.34156278
0.091042578 0.0092292204 0.34447753
0.088787191 0.0083191879 0.34431067
0.086447582 0.0068778321 0.34413692
0.083894283 0.0052557327 0.34383738
0.081377245 0.0035563931 0.34387484
0.063999638 -0.007952407 0.34204245
0.06148833 -0.0098278485 0.34149605
0.059483897 -0.01182282 0.34125477
0.057542402 -0.013962355 0.34100956
0.056051396 -0.015314439 0.34083745
0.099976107 0.01131282 0.34517431
0.098112509 0.0106485 0.34501615
0.095526882 0.009382017 0.34484193
0.092910364 0.0079308748 0.3448613
0.090340674 0.0062158667 0.34508204
0.05992648 -0.013437577 0.34119374
0.057909101 -0.0151188 0.34096909
0.055826638 -0.017228816 0.34071633
0.054044824 -0.019559152 0.34047088
0.052596252 -0.021199828 0.34028548
0.101707 0.010038693 0.34521595
0.099518895 0.0089665428 0.34530398
0.097107135 0.0072927438 0.34564239
0.053562 -0.021156348 0.34035069
0.052531481 -0.022157086 0.34022802
0.10871633 0.010214269 0.34568149
0.10630767 0.00933294 0.34559754
0.10366186 0.0080954768 0.3457067
0.11271581 0.01005064 0.34593242
0.11034523 0.0089477934 0.3459793
0.11665192 0.0093814023 0.34615114
0.1143506 0.0083420277 0.34620467
0.12077252 0.0080664456 0.34634596
0.1186318 0.0075348578 0.34643066
0.12500666 0.007219214 0.34657416
0.12290557 0.0066279359 0.3465465
0.12674649 0.0056471676 0.3468695
0.13061982 0.0042829998 0.34677583
0.13498358 0.002555605 0.34696355
0.1366332 0.00123965 0.34699759
0.13848674 -0.00069335476 0.34705424
0.14215751 -0.0024104901 0.34715384
0.14044233 -0.0029134937 0.34739327
0.14372404 -0.0046049617 0.34713367
0.14211442 -0.0053860061 0.34758559
0.14562073 -0.0067459419 0.34713787
0.14770207 -0.0088387281 0.34715682
0.1491479 -0.011235584 0.34711754
0.15106282 -0.013949245 0.34717721
0.056475028 -0.079318807 0.33730555
0.15241326 -0.016247934 0.34705111
0.05799691 -0.081727915 0.33727053
0.15420076 -0.018983711 0.3470152
0.15238364 -0.020156488 0.34751394
0.059847686 -0.084172294 0.33725494
0.15581709 -0.021265248 0.34699345
0.15419419 -0.022621296 0.34745696
0.061275288 -0.086837173 0.33719957
0.15735832 -0.023927199 0.34694558
0.15584353 -0.025100248 0.34719926
0.063170828 -0.089056291 0.33719939
0.15838426 -0.025839932 0.34690598
0.15748431 -0.027590226 0.34716463
0.064524762 -0.090367615 0.33721456
0.15897259 -0.030121652 0.34685296
0.15671492 -0.03176387 0.34761196
0.16012411 -0.03257997 0.34664425
0.15844688 -0.034169678 0.34721884
0.16085869 -0.034804855 0.34656832
0.15981768 -0.036729664 0.34660363
0.16045287 -0.039120864 0.34630188
0.15920216 -0.040829539 0.34666508
0.16067724 -0.043431107 0.34638169
0.158723 -0.044996224 0.34676182
0.16202515 -0.045941211 0.34602481
0.16042893 -0.047451735 0.3461116
0.16167502 -0.049934678 0.34577996
0.15969448 -0.051707976 0.34603092
0.16204377 -0.052153219 0.34568059
0.16090694 -0.054125808 0.3455269
0.15878175 -0.055771165 0.34596142
0.1613827 -0.056231417 0.34541082
0.16013329 -0.058215875 0.34529263
0.15806043 -0.059994023 0.34562513
0.16055971 -0.060390353 0.34512603
0.15918109 -0.061970364 0.34494847
0.15738803 -0.064159147 0.34515521
0.15492225 -0.065975964 0.34580201
0.10094607 -0.10425171 0.33881056
0.15821208 -0.066415176 0.34463829
0.15652338 -0.068274371 0.34466305
0.15419549 -0.070057228 0.34486952
0.10717265 -0.10395566 0.33923194
0.10508648 -0.10409054 0.33908874
0.10262475 -0.10429101 0.33891755
0.15717253 -0.070228465 0.34435862
0.15557298 -0.0721182 0.34414953
0.15340614 -0.074007615 0.34410056
0.15094471 -0.075884178 0.34429607
0.11399267 -0.10291076 0.33973351
0.11173652 -0.10380511 0.33953702
0.1091658 -0.10482496 0.33931315
0.10702188 -0.10558328 0.33913156
0.15399395 -0.075974762 0.3438324
0.15217793 -0.077789813 0.34361336
0.14990681 -0.079918496 0.34338152
0.14812499 -0.081896394 0.34312144
0.14605342 -0.084169179 0.3431949
0.14424109 -0.085839532 0.34323516
0.12090016 -0.10075574 0.34069937
0.11841769 -0.10239972 0.34018528
0.11582017 -0.10379668 0.33980301
0.11321583 -0.10510974 0.33956066
0.11062451 -0.10606389 0.33933911
0.14999682 -0.082209952 0.34322578
0.14879519 -0.083646789 0.34306768
0.14681582 -0.085585386 0.34283116
0.14443064 -0.08754798 0.34260875
0.14212473 -0.089444399 0.34247541
0.13964602 -0.091020033 0.3424525
0.13722381 -0.092795819 0.3422901
0.13475746 -0.09453544 0.34200394
0.1321958 -0.096118346 0.3415435
0.1297821 -0.09766759 0.34109786
0.12734066 -0.099374749 0.34079802
0.1247704 -0.10087362 0.34054753
0.12205586 -0.10203011 0.34030673
0.11953593 -0.10337532 0.34006807
0.14442806 -0.089806609 0.3424412
0.14299922 -0.091091171 0.34227684
0.14087382 -0.092531875 0.34205851
0.13832909 -0.094211243 0.34179968
0.13580391 -0.095957361 0.34153837
0.13369605 -0.097227618 0.34133071
