# .PCD v0.7 - Point Cloud Data file format
VERSION 0.7
FIELDS x y z
SIZE 4 4 4
TYPE F F F
COUNT 1 1 1
WIDTH 1049
HEIGHT 1
VIEWPOINT 0 0 0 1 0 0 0
POINTS 1049
DATA ascii
-0.041408256 0.16656032 0.33552346
-0.043093666 0.16692965 0.33514929
-0.045305781 0.16801333 0.33466849
-0.06834875 0.1708712 0.32951394
-0.069804206 0.17073576 0.32918286
-0.073778346 0.17015432 0.32827514
-0.07452102 0.17074651 0.32811773
-0.074488826 0.16905046 0.32809544
-0.076109253 0.17004225 0.32774666
-0.13562164 0.097732395 0.31304419
-0.13604897 0.098497272 0.31296098
-0.13550273 0.093905963 0.31300429
-0.13574636 0.09584558 0.31298316
-0.13612658 0.097835302 0.31293193
-0.13301317 0.079429641 0.31331405
-0.13362616 0.081045434 0.31320381
-0.023603596 0.15614402 0.34038842
-0.02482662 0.15739043 0.34013394
-0.0064016767 0.13575096 0.343918
-0.0082080215 0.13809443 0.34375581
-0.01027507 0.1403199 0.34372252
-0.01254354 0.14240128 0.34348646
-0.014653113 0.14463031 0.34338632
-0.016696986 0.14666909 0.34287313
-0.018760484 0.14874202 0.3423225
-0.020791672 0.15087748 0.341847
-0.022773005 0.15307841 0.34126627
-0.024816316 0.15513463 0.3406451
-0.026919752 0.15716286 0.34006944
-0.029041331 0.15907258 0.33931029
-0.031291991 0.16086861 0.33873445
-0.033840824 0.16298997 0.33819577
-0.035625845 0.16481343 0.33782443
-0.037241161 0.16590349 0.33747852
-0.001267992 0.125645 0.34575558
-0.0020482019 0.12753926 0.34530944
-0.0041616708 0.12975238 0.34505013
-0.0062460452 0.13189614 0.34483451
-0.0083182491 0.13399287 0.34462076
-0.010185897 0.13621689 0.34458169
-0.011872005 0.13868845 0.34453744
-0.01399656 0.14105839 0.34434578
-0.016056512 0.14315772 0.34391716
-0.018116459 0.14525706 0.34348851
-0.020176411 0.14735639 0.34305987
-0.022539951 0.1495596 0.34254172
-0.024570115 0.15161712 0.34197095
-0.026733123 0.15363024 0.34151006
-0.028873689 0.1556704 0.34083542
-0.03118293 0.15754423 0.34012622
-0.033288486 0.15945189 0.33936426
-0.035329949 0.16146562 0.33843368
-0.037276968 0.16350146 0.33754128
-0.03931357 0.16538548 0.3370015
-0.041300297 0.16631529 0.33656892
0.00057832152 0.118851 0.34622496
-0.0007929951 0.12059978 0.34594575
-0.0023600012 0.12318788 0.34572881
-0.0040781051 0.12549368 0.34594822
-0.0057087168 0.1280209 0.34599024
-0.0075272061 0.13066293 0.34562561
-0.009446878 0.13265733 0.34522682
-0.035173256 0.15837368 0.33986491
-0.037295073 0.15982421 0.33914036
-0.039502036 0.16156888 0.33823612
-0.041482542 0.16363642 0.33753321
-0.043521702 0.16540289 0.33655882
-0.045845345 0.1668618 0.33565718
-0.047801591 0.16838816 0.33513671
0.0019078329 0.11482275 0.34561855
0.00026204437 0.11706614 0.34590086
-0.0019564703 0.11907312 0.34608161
-0.0034860745 0.1214849 0.34631416
-0.0045857318 0.12341602 0.34616357
-0.041355971 0.16092418 0.33851299
-0.043558724 0.16218898 0.33803755
-0.04569798 0.1637509 0.33728561
-0.047769118 0.16580403 0.33618173
-0.049832519 0.16785625 0.33525726
-0.052046612 0.16893077 0.33439255
0.0021142513 0.11071429 0.3460218
0.00095856935 0.11247525 0.3459067
-0.0020762756 0.1160336 0.34660158
-0.0025469214 0.11709283 0.34651375
-0.047722366 0.16329935 0.33711654
-0.049831055 0.16423722 0.33663896
-0.051941268 0.16571844 0.33557686
-0.053928707 0.16798647 0.33450806
0.0020306855 0.10638633 0.34670168
0.0005184859 0.1085512 0.34678042
-0.00035746396 0.11070675 0.34689689
-0.053776979 0.16476786 0.33577466
-0.056107584 0.16620159 0.3348704
-0.05818662 0.16782562 0.33382425
0.0021079555 0.10211395 0.3467741
0.00020001829 0.10417836 0.3469089
-0.00050704181 0.10618857 0.34678429
-0.059924785 0.1666635 0.33414316
-0.061974209 0.16832277 0.33208349
-0.064138077 0.16991314 0.3314735
0.002105318 0.097919658 0.34674808
0.00044874102 0.10014182 0.34687665
-0.00038525462 0.10209095 0.34674031
-0.064127363 0.16743597 0.33143282
-0.066340968 0.16800877 0.33173367
-0.068225652 0.16967821 0.33068013
-0.070507124 0.17062664 0.33004755
0.0021405742 0.093676612 0.34671593
0.00044643879 0.095723771 0.34681708
-0.068173937 0.16722843 0.33154061
-0.070434123 0.16816536 0.33085898
-0.072317116 0.16969554 0.32983148
-0.074049592 0.17081079 0.32925069
0.0019863546 0.089394704 0.34610704
0.00057215244 0.091783129 0.34661761
-0.072722927 0.16637132 0.33149049
-0.073481672 0.16849458 0.32965901
-0.077776171 0.1695224 0.32838657
0.0011719093 0.087278217 0.34580833
-0.079181172 0.1684441 0.32805046
-0.080393709 0.16924649 0.32779062
0.00027213246 0.08294341 0.34623572
-0.081441574 0.16656157 0.32825276
-0.082895756 0.16768065 0.32776448
0.0001771152 0.078839019 0.34588745
-0.001269415 0.080494717 0.3461639
-0.083568782 0.16422291 0.32903647
-0.085043356 0.16574636 0.32815084
-0.001800172 0.076671287 0.34591186
-0.0025974661 0.078459531 0.34582844
-0.085805453 0.16218658 0.3284958
-0.087187499 0.16357481 0.32820785
-0.0018528998 0.072522871 0.34549317
-0.0029199198 0.074373133 0.34568435
-0.08931309 0.16233686 0.32757473
-0.003654182 0.070087388 0.34544376
-0.091129713 0.16137308 0.32625374
-0.004735209 0.068043731 0.34516394
-0.095667303 0.15995196 0.32516608
-0.097701184 0.1586788 0.32472256
-0.10174203 0.15793374 0.32317495
-0.0097203404 0.059314247 0.34388575
-0.10439423 0.15572405 0.32254416
-0.011858925 0.057091422 0.34336397
-0.10600486 0.15307155 0.32318527
-0.01260519 0.053518564 0.34313309
-0.013685368 0.054988094 0.34291476
-0.1082439 0.15140621 0.32291231
-0.10961264 0.15296012 0.32140273
-0.014375214 0.051324345 0.34269506
-0.015846677 0.052769449 0.34238791
-0.110243 0.14920223 0.32231608
-0.11168286 0.15080389 0.32093897
-0.016313098 0.0490539 0.34217831
-0.017898537 0.050588772 0.34188646
-0.11256701 0.14699572 0.32189134
-0.11384632 0.148683 0.32055154
-0.020179909 0.048978902 0.3413431
-0.11422086 0.14518474 0.32115179
-0.11582001 0.14654273 0.31978059
-0.020603962 0.045055687 0.3409881
-0.021943185 0.046689592 0.34090492
-0.11655381 0.14348464 0.31932062
-0.11789079 0.14433715 0.31896511
-0.024256073 0.04406362 0.34033674
-0.11887928 0.14080718 0.31933081
-0.11977585 0.14229116 0.31854451
-0.026480746 0.04233636 0.33980417
-0.12063254 0.13911927 0.31897435
-0.12185974 0.14011249 0.3180348
-0.028448585 0.040097378 0.33932066
-0.12148772 0.13361374 0.3199383
-0.12253173 0.13591647 0.31852654
-0.12391787 0.13815989 0.31742817
-0.030780122 0.038236849 0.33873957
-0.032991849 0.038963277 0.33827475
-0.12239516 0.13281752 0.31966549
-0.12411177 0.13382807 0.31805101
-0.1255805 0.13591096 0.3170034
-0.032873724 0.036249988 0.33819437
-0.034375988 0.037768234 0.33794129
-0.12569928 0.12945956 0.31788933
-0.12630169 0.13172954 0.31737548
-0.03504812 0.034582049 0.33739653
-0.036690116 0.035727262 0.33738303
-0.12595971 0.12550025 0.3187868
-0.12664722 0.12748948 0.31827846
-0.037441313 0.03268256 0.33711663
-0.03901244 0.034106463 0.33683023
-0.04055804 0.034910433 0.33649519
-0.039441649 0.031053983 0.33668008
-0.041057315 0.032092117 0.33633325
-0.043213062 0.032771349 0.3358582
-0.043352745 0.030536003 0.33563638
-0.045146052 0.031874716 0.33539459
-0.047122069 0.032607295 0.33497247
-0.046983115 0.03036806 0.33437544
-0.049157396 0.031638518 0.33449587
-0.0514341 0.029862523 0.33366325
-0.05368907 0.030934565 0.33346009
-0.053437814 0.028301306 0.33262572
-0.055643268 0.029772386 0.33279911
-0.057802774 0.030705273 0.33252698
-0.057589766 0.028053164 0.33172032
-0.059857838 0.029603057 0.3319729
-0.062048338 0.03049086 0.33156437
-0.13300394 0.10380982 0.31676614
-0.061634582 0.027936809 0.33085105
-0.063989073 0.029674694 0.3309758
-0.066390038 0.031233899 0.33059672
-0.13337466 0.099917695 0.31654024
-0.1345605 0.10198242 0.31562886
-0.065633111 0.027957819 0.32975483
-0.067909867 0.029914223 0.32976601
-0.069687925 0.031003058 0.32984784
-0.13236961 0.093552381 0.31678179
-0.13327663 0.095621437 0.31630343
-0.13441196 0.097760677 0.31538391
-0.13587552 0.099963054 0.3143267
-0.069834672 0.028032511 0.32880521
-0.072198249 0.029700547 0.32894942
-0.07474681 0.031157866 0.32870796
-0.076422244 0.032352626 0.32835039
-0.13134009 0.089066625 0.31693605
-0.13263562 0.091376841 0.31620121
-0.13418145 0.093509801 0.31499934
-0.1353797 0.095556587 0.31426007
-0.071884334 0.027093284 0.32825828
-0.074066363 0.028087683 0.32778266
-0.076066598 0.030024484 0.32757872
-0.077532038 0.031810604 0.32809028
-0.12996112 0.082732543 0.31713703
-0.13111237 0.085042328 0.31685114
-0.13247854 0.087198898 0.31615362
-0.13418502 0.089344963 0.3148725
-0.13572145 0.091457821 0.31395131
-0.13654482 0.093356989 0.31378469
-0.078003369 0.028274663 0.32642844
-0.080594763 0.029841468 0.32646692
-0.082602285 0.031732507 0.32663125
-0.084848158 0.033508301 0.32641447
-0.08677353 0.034926943 0.32605737
-0.1291047 0.078445703 0.31717876
-0.13039087 0.080682352 0.31651595
-0.1322453 0.083002083 0.31566748
-0.13403228 0.085139409 0.31457552
-0.13469322 0.087270938 0.31425446
-0.08163555 0.028955333 0.32608834
-0.084489286 0.030643791 0.32547328
-0.086413935 0.0320196 0.32516828
-0.088588595 0.034039214 0.32519379
-0.090925023 0.035582695 0.32511252
-0.093563475 0.037273694 0.32456475
-0.12523656 0.069839887 0.31797922
-0.12676445 0.071872965 0.31762773
-0.12847954 0.074231207 0.31698483
-0.13013797 0.076502301 0.3162252
-0.13211906 0.078635007 0.31501085
-0.1333919 0.081208438 0.31432226
-0.13490611 0.083399519 0.31398115
-0.090335757 0.03234262 0.32399473
-0.092646681 0.034221627 0.32374999
-0.094874673 0.036419015 0.32368121
-0.097061031 0.038356353 0.32336333
-0.099348783 0.040126182 0.32312253
-0.10165976 0.041985627 0.32281834
-0.10391278 0.043777619 0.32234073
-0.10621238 0.045981802 0.32185981
-0.10734536 0.047136426 0.32162407
-0.11913954 0.059365265 0.31917357
-0.12064928 0.061232496 0.31886515
-0.12263191 0.063496888 0.31834695
-0.12437333 0.06577082 0.31786734
-0.12607221 0.068083823 0.31731337
-0.12795249 0.070253074 0.3165414
-0.1299144 0.072288692 0.3154355
-0.13146883 0.074577868 0.31476617
-0.13284904 0.076677307 0.31432852
-0.098741181 0.036581513 0.32210153
-0.10093219 0.038496267 0.32162347
-0.10306032 0.040499724 0.32157621
-0.10522644 0.04258744 0.32156858
-0.1074044 0.044708289 0.32127663
-0.10950671 0.046773765 0.32086208
-0.111634 0.048844051 0.32040557
-0.11365101 0.05096814 0.31990647
-0.11567843 0.053264864 0.31943202
-0.11775224 0.055427317 0.31899101
-0.11977208 0.057533942 0.31852016
-0.12181393 0.059733234 0.31777513
-0.12373482 0.061840869 0.31705657
-0.12575048 0.063967481 0.31657115
-0.12737621 0.066297561 0.31633419
-0.0106107 0.13386649 0.34601042
-0.011889923 0.13565293 0.34575263
-0.013409939 0.13791505 0.34554812
-0.015263487 0.14009634 0.34541872
-0.017333847 0.14219922 0.34502181
-0.019408636 0.14431366 0.34459016
-0.021483384 0.14642814 0.34415844
-0.023617253 0.14840123 0.3436074
-0.0258605 0.15044555 0.34302345
-0.027953323 0.1524301 0.3424173
-0.030079018 0.1544333 0.34197208
-0.032203902 0.15626068 0.34152403
-0.033802904 0.15750214 0.34118456
-0.0058301128 0.1252104 0.34693912
-0.0071800947 0.12748545 0.34675288
-0.0088183917 0.12972862 0.3466742
-0.010983221 0.13175431 0.34662467
-0.013097562 0.13385764 0.34663531
-0.015053816 0.13606319 0.34653673
-0.017096855 0.13834347 0.34611705
-0.019276995 0.14040148 0.34583852
-0.021321975 0.14261134 0.34565276
-0.023282278 0.14488737 0.34520167
-0.025333572 0.14699827 0.34458044
-0.02757179 0.14907153 0.34409234
-0.02976035 0.15090314 0.34336498
-0.031811133 0.15295576 0.34264582
-0.033869043 0.1550708 0.34207943
-0.03583581 0.15699935 0.34115309
-0.038237169 0.15858451 0.3402465
-0.040193975 0.1600402 0.33978537
-0.0036829934 0.11865596 0.34730977
-0.0049881041 0.12091122 0.34720325
-0.0067590885 0.12323911 0.34756863
-0.0088824108 0.12537707 0.34775731
-0.010592274 0.12778509 0.34762198
-0.012430407 0.13014373 0.34753129
-0.01432744 0.13235651 0.34719533
-0.015561961 0.13386059 0.34694272
-0.031559262 0.15000036 0.34361115
-0.033512309 0.15181428 0.34320173
-0.035975024 0.15366995 0.34267798
-0.038050529 0.15533911 0.34199309
-0.040073462 0.15718898 0.3410925
-0.042034063 0.15919538 0.3398585
-0.044141129 0.16089445 0.33901599
-0.046582468 0.16243231 0.33838418
-0.0021646023 0.11264525 0.34754786
-0.0031953081 0.11466111 0.34752113
-0.0047145709 0.11692221 0.3479946
-0.0064184666 0.11933084 0.34824178
-0.008193709 0.12155648 0.3483384
-0.0096529648 0.12346888 0.34809604
-0.04180003 0.15629888 0.34140807
-0.044404276 0.15773354 0.34075457
-0.04634919 0.15927261 0.33987176
-0.048216775 0.16145056 0.33854875
-0.050265208 0.16295226 0.33759415
-0.052379873 0.16382067 0.33709905
-0.0023385361 0.10855347 0.34846255
-0.0030748025 0.11074509 0.34817675
-0.0047485381 0.11281917 0.34851027
-0.0059055835 0.11483843 0.3487919
-0.046382759 0.15666778 0.34037945
-0.04807926 0.15786156 0.33999223
-0.050341487 0.15966077 0.33921945
-0.052557223 0.1614145 0.33832687
-0.054460995 0.16335492 0.33717719
-0.056716762 0.16484252 0.33624879
-0.058468655 0.16582131 0.33575875
-0.0012974292 0.10353928 0.3475849
-0.0034780875 0.10667629 0.34866619
-0.0045483075 0.10855566 0.34884441
-0.0057296529 0.11088283 0.34876263
-0.054641388 0.16012791 0.33857465
-0.056736227 0.16152646 0.33774725
-0.058676906 0.16351071 0.33664379
-0.060436808 0.16518 0.33563
-0.0011070147 0.0998317 0.34779817
-0.0026517138 0.10214864 0.34828964
-0.0043961406 0.10429041 0.34886491
-0.0052293278 0.10633702 0.34879634
-0.058656491 0.16051261 0.33767441
-0.060574204 0.16218403 0.33711779
-0.062436048 0.16393399 0.33591622
-0.065229498 0.16504109 0.33455995
-0.0010753125 0.095845595 0.34763175
-0.0025836378 0.097961627 0.34820428
-0.0044227466 0.099849999 0.34877366
-0.067432612 0.16410404 0.33476114
-0.068624891 0.16475555 0.33441764
-0.0015381649 0.092077732 0.34775782
-0.0025548711 0.093719795 0.34803608
-0.0044197217 0.095778219 0.34859851
-0.0053968802 0.097692467 0.34860772
-0.068382949 0.15982948 0.3354657
-0.069435135 0.1612599 0.33525321
-0.071034297 0.16329251 0.33430734
-0.073501013 0.16519886 0.33235273
-0.0035740733 0.089603379 0.34871525
-0.0044360124 0.091429532 0.34854025
-0.005169075 0.093530588 0.34858656
-0.071105741 0.15978158 0.33449703
-0.073107526 0.16161904 0.33338246
-0.075082973 0.16354522 0.33216813
-0.076947317 0.16438739 0.33156022
-0.0017148331 0.082755081 0.34712806
-0.0035757124 0.084520951 0.34742215
-0.0051229745 0.087701246 0.34847492
-0.0055641048 0.088976771 0.34841791
-0.075089768 0.16114086 0.33294845
-0.077364087 0.16181833 0.33197436
-0.079234704 0.16311142 0.33109364
-0.081438057 0.16400263 0.33053923
-0.0028017461 0.081266172 0.34699652
-0.0043774843 0.083146818 0.34737924
-0.0053260103 0.085086741 0.34737846
-0.080316484 0.16238964 0.33102074
-0.082398064 0.16420478 0.33032593
-0.0035387352 0.076204769 0.34660187
-0.0040708296 0.079762593 0.34692144
-0.005394876 0.08121144 0.34729534
-0.08419852 0.15850799 0.33187068
-0.086886138 0.16122989 0.32926038
-0.0039340034 0.072613277 0.34644997
-0.004382506 0.074535735 0.34638232
-0.085560143 0.15792882 0.33144161
-0.08709053 0.16050576 0.32940665
-0.088346586 0.16166389 0.3289381
-0.005020991 0.070811071 0.34617299
-0.0059253201 0.07210242 0.34631678
-0.0056785941 0.066239074 0.34594476
-0.006530378 0.068295211 0.34583244
-0.0081252046 0.069990888 0.34630665
-0.093967125 0.15627554 0.32907
-0.0062719285 0.065815985 0.34580335
-0.0076968223 0.066754669 0.34552285
-0.0090234652 0.068299696 0.34595761
-0.096077792 0.15513247 0.3281427
-0.097762123 0.15587319 0.32773587
-0.012733843 0.063854583 0.34636039
-0.013028782 0.064579993 0.34630641
-0.098114297 0.15306416 0.32816866
-0.099570982 0.15437971 0.32687402
-0.011898182 0.059444021 0.34448984
-0.0133374 0.061898913 0.34570834
-0.014073446 0.063363105 0.34604931
-0.10038561 0.15120918 0.32775787
-0.10199562 0.15265286 0.32631132
-0.013128694 0.058213558 0.34436449
-0.014865972 0.05978144 0.34519482
-0.016646914 0.06056365 0.34541917
-0.10422504 0.15098473 0.32520148
-0.10576196 0.15181166 0.32483283
-0.015197571 0.055660184 0.34374058
-0.017014802 0.057554077 0.34480727
-0.018143479 0.059097737 0.34505564
-0.10650955 0.14883538 0.32511345
-0.10787338 0.15024342 0.32432869
-0.017150309 0.05381364 0.34328574
-0.018863905 0.055410717 0.34413052
-0.019936811 0.056857117 0.34461147
-0.10756731 0.14497361 0.32635653
-0.10846592 0.14665039 0.32518181
-0.10977826 0.14811078 0.32386118
-0.019026335 0.051490784 0.34267294
-0.019366216 0.052952297 0.34262156
-0.10944313 0.14327045 0.32590315
-0.11052831 0.14453727 0.32485336
-0.11191099 0.14603089 0.32341164
-0.020523056 0.050627481 0.34231973
-0.1114855 0.14129844 0.32540748
-0.11255629 0.14236999 0.32451648
-0.11365014 0.14395523 0.3232699
-0.023808956 0.046612397 0.34158075
-0.0259372 0.048613489 0.34286144
-0.027276583 0.049432628 0.34282422
-0.11397956 0.13860494 0.32479718
-0.11461556 0.14013527 0.3241418
-0.11477416 0.14220251 0.32365513
-0.025260285 0.045309003 0.34146333
-0.027329318 0.046911385 0.34225577
-0.028692927 0.048043828 0.34248012
-0.11502416 0.1371378 0.32453567
-0.11641423 0.13802481 0.32368293
-0.027860001 0.043150801 0.34071046
-0.029370114 0.044788964 0.34173086
-0.030765913 0.046067405 0.34197751
-0.11893293 0.13587388 0.32183638
-0.029581841 0.041149244 0.34010839
-0.031187937 0.042759236 0.34052515
-0.032655526 0.044172786 0.34151763
-0.12068677 0.13438542 0.32115805
-0.12169344 0.13502204 0.32094175
-0.031393576 0.039631981 0.33967271
-0.033194188 0.040692624 0.33979234
-0.035013519 0.042128768 0.34094951
-0.12151851 0.12954806 0.32280844
-0.12253612 0.13050136 0.32186884
-0.035492569 0.037953019 0.33871767
-0.038720038 0.040136389 0.34007749
-0.12276352 0.12825374 0.3217704
-0.12346038 0.12917337 0.321466
-0.037601236 0.036950536 0.33830804
-0.03960802 0.038434923 0.33910954
-0.041349091 0.039668061 0.33947563
-0.12344927 0.12457393 0.32241365
-0.12493698 0.12531003 0.32106513
-0.039477594 0.035658285 0.33777761
-0.041216627 0.036316667 0.33782881
-0.042877018 0.03852744 0.33911061
-0.12672263 0.12456054 0.31962341
-0.042079888 0.033283994 0.33714846
-0.043403421 0.034098357 0.33686388
-0.046045505 0.03543764 0.33664277
-0.045569737 0.033266701 0.33635989
-0.047629438 0.034352131 0.33610937
-0.049133778 0.035293773 0.33610299
-0.049652733 0.032900549 0.33543134
-0.050428979 0.033884935 0.33527321
-0.056854889 0.033855975 0.33511415
-0.058605529 0.035049923 0.3354975
-0.055877708 0.031251565 0.33399662
-0.058037356 0.032259196 0.33401647
-0.060388833 0.034128726 0.33459008
-0.0624373 0.035290055 0.33463636
-0.12962535 0.10470007 0.31964672
-0.13076566 0.10613254 0.31938112
-0.06003933 0.03099858 0.33305225
-0.062053785 0.032170877 0.3330352
-0.064003251 0.033473559 0.33311874
-0.13177474 0.10284638 0.31810358
-0.13197187 0.1040514 0.31817123
-0.06381923 0.031077854 0.33219993
-0.06600678 0.032388531 0.33172894
-0.067653432 0.033634789 0.33137858
-0.072015107 0.035620581 0.33247882
-0.1282299 0.09324342 0.32078743
-0.12973136 0.094979569 0.32045487
-0.13112305 0.097541995 0.31928626
-0.13262269 0.099999413 0.31786254
-0.13322319 0.10207794 0.31776306
-0.068142466 0.03188467 0.33123761
-0.070538871 0.032076888 0.33092764
-0.073023565 0.034037724 0.33187476
-0.075246803 0.035444528 0.33174595
-0.077155367 0.036469173 0.33133265
-0.12770858 0.088931553 0.32083005
-0.1290983 0.091241047 0.32025817
-0.13084158 0.093457848 0.31925046
-0.13237771 0.095691085 0.31817085
-0.13323119 0.097937599 0.31768903
-0.072259873 0.03099332 0.33029208
-0.074541479 0.032295495 0.3304261
-0.077001199 0.034088165 0.3307142
-0.079257026 0.035877943 0.33073661
-0.081575274 0.037172452 0.33034664
-0.12630641 0.082736492 0.32103857
-0.12729609 0.084784806 0.32065794
-0.12881908 0.087067239 0.31971318
-0.13033806 0.089332633 0.31856346
-0.13175824 0.091763265 0.31798086
-0.13286686 0.093501911 0.31769392
-0.078755096 0.032649763 0.32895666
-0.080901831 0.034170784 0.32900155
-0.083194032 0.036223464 0.32940528
-0.085526183 0.037799537 0.32928276
-0.087801754 0.039393254 0.32897919
-0.089564398 0.040618788 0.32860237
-0.12399903 0.07598491 0.32144195
-0.12541562 0.078086831 0.32115883
-0.12708427 0.080578856 0.3204805
-0.12869276 0.08272554 0.31927544
-0.13010129 0.085014366 0.31835496
-0.13096312 0.087257117 0.31801501
-0.080608778 0.031555258 0.32841626
-0.082284167 0.032859035 0.32806057
-0.084501907 0.034646958 0.32789427
-0.087002628 0.036270548 0.32771116
-0.089228936 0.038167 0.32793456
-0.091509402 0.040093321 0.32791096
-0.093831457 0.041798994 0.32760933
-0.095778972 0.04325005 0.32724464
-0.12162897 0.069614559 0.32186612
-0.12325851 0.071985245 0.32149684
-0.12475479 0.074215569 0.32086849
-0.12674122 0.076403856 0.31992903
-0.12824261 0.078617491 0.31895268
-0.12950376 0.081053182 0.31823635
-0.088802151 0.035560589 0.3266356
-0.090993837 0.036832005 0.32635754
-0.093270861 0.038426049 0.32612431
-0.095329538 0.040535666 0.32610637
-0.09758836 0.042444393 0.32619905
-0.099938877 0.044307884 0.32603699
-0.10221529 0.046234567 0.32560101
-0.10434663 0.048197053 0.32532096
-0.10667428 0.050394081 0.32490855
-0.10877748 0.052552149 0.32447118
-0.11086975 0.054684483 0.32403582
-0.11297403 0.057030205 0.32360151
-0.1149129 0.059169881 0.323093
-0.11687124 0.061296031 0.32264924
-0.11886729 0.063539729 0.3221277
-0.12070794 0.065901004 0.32159948
-0.12257545 0.067943536 0.32077014
-0.12429421 0.070182368 0.32007059
-0.12601668 0.072557591 0.31926319
-0.12758926 0.074684657 0.31871143
-0.12873344 0.076395541 0.31832913
-0.095167689 0.037983455 0.32524014
-0.096788764 0.039425299 0.32489914
-0.099022806 0.041314781 0.32454145
-0.1012512 0.043020818 0.32425362
-0.10358759 0.044856366 0.32391411
-0.10567372 0.046937767 0.32375285
-0.1078375 0.048974212 0.3235442
-0.10989457 0.051100846 0.32306656
-0.11196388 0.053238031 0.32261348
-0.11400209 0.055382431 0.32211167
-0.11600429 0.057495542 0.32150486
-0.1180546 0.059630863 0.32101375
-0.1199427 0.061880216 0.3204903
-0.12176729 0.064135104 0.31996718
-0.12349254 0.066340774 0.31939596
-0.12477868 0.068055488 0.31907684
-0.10924289 0.047973044 0.32223544
-0.11109146 0.049796928 0.3218497
-0.11316219 0.051907256 0.32141882
-0.11502618 0.053876955 0.3210322
-0.11720112 0.056233618 0.32058209
-0.11865063 0.057710849 0.32028046
-0.016806066 0.13541748 0.34771422
-0.018515926 0.13726436 0.34736031
-0.020768356 0.13937686 0.34688836
-0.022789814 0.1415762 0.34647021
-0.024616681 0.14369205 0.34609455
-0.026659045 0.14580718 0.34567016
-0.028685134 0.14776202 0.34524664
-0.030336913 0.1490216 0.34489548
-0.010969829 0.12533423 0.34885651
-0.012135509 0.12711249 0.34862429
-0.013849154 0.12941135 0.34829301
-0.015864827 0.131633 0.34801838
-0.017790765 0.13382646 0.3478567
-0.019904215 0.13592182 0.34767941
-0.022000138 0.13806163 0.34711507
-0.02409694 0.14013961 0.34670022
-0.026147775 0.14230217 0.3464596
-0.028311305 0.14446667 0.34617695
-0.030385897 0.14660318 0.34557012
-0.032372024 0.14859781 0.34480321
-0.034562442 0.15056351 0.3442862
-0.036636353 0.15233573 0.34362203
-0.038869031 0.15396397 0.34305468
-0.0068491213 0.11697125 0.34964132
-0.0079869144 0.11857916 0.34941244
-0.0097296759 0.12083676 0.34920454
-0.011541232 0.12320075 0.34908831
-0.013575397 0.12540123 0.34891215
-0.015762649 0.12759258 0.34895146
-0.017964076 0.12967382 0.34897318
-0.019875225 0.13180682 0.34882328
-0.02178574 0.13421254 0.34860373
-0.02386535 0.13646896 0.34802064
-0.025903936 0.13864483 0.34772965
-0.027939677 0.14082901 0.34734467
-0.030113645 0.14276263 0.34688729
-0.032245316 0.14484759 0.3462998
-0.034446958 0.1468579 0.3456158
-0.036624931 0.14878473 0.34514582
-0.038655885 0.15087119 0.34432602
-0.040660582 0.15299624 0.34331352
-0.042756449 0.15499596 0.34247765
-0.044621035 0.15649359 0.34179974
-0.0067596696 0.11278778 0.34958857
-0.0075765029 0.11493447 0.34947801
-0.0094254613 0.11689588 0.34957588
-0.011569638 0.118912 0.34992015
-0.013602663 0.12111795 0.34996474
-0.015187543 0.1237988 0.34992781
-0.017266858 0.12631331 0.34950206
-0.019032195 0.12816219 0.34913558
-0.038620695 0.14829116 0.34506249
-0.040498465 0.14953235 0.34466004
-0.042789042 0.15109462 0.3439799
-0.045037009 0.15301983 0.34314951
-0.046964515 0.15501447 0.34203455
-0.049196154 0.15669075 0.34123853
-0.051250353 0.15827587 0.3404507
-0.0061893351 0.10835104 0.3497189
-0.0074927807 0.11062228 0.34989777
-0.0095691606 0.1127028 0.35020021
-0.011299033 0.11501868 0.35048193
-0.012889978 0.11733959 0.35033408
-0.014166735 0.11905557 0.35007563
-0.04685038 0.15222034 0.3432723
-0.049016114 0.15359001 0.34278792
-0.051305741 0.15507735 0.34203717
-0.053060841 0.1571167 0.3408002
-0.055089306 0.15885291 0.33968148
-0.057178471 0.15988256 0.33902261
-0.0059470162 0.10410271 0.34972072
-0.0073169209 0.10636208 0.35005477
-0.0096164905 0.10842735 0.35041481
-0.011113711 0.11031587 0.35061273
-0.053170964 0.15417778 0.34187889
-0.054404341 0.1557944 0.34111586
-0.056292724 0.1580295 0.33990806
-0.057595801 0.15961397 0.33892366
-0.0059900545 0.10010461 0.34962907
-0.0073105656 0.10205439 0.3502714
-0.0093647614 0.10423018 0.35056344
-0.010917153 0.10649892 0.3505336
-0.0060456246 0.095480703 0.34954411
-0.0074648149 0.097796343 0.35015208
-0.008995451 0.10016346 0.35073411
-0.010084741 0.10213831 0.35070252
-0.0061895065 0.09139578 0.34951514
-0.007399153 0.093537711 0.35013348
-0.0089570992 0.095644943 0.35072991
-0.0073593929 0.089536503 0.3495968
-0.0094022565 0.091402166 0.35044414
-0.009923704 0.093592629 0.35058981
-0.0099804327 0.087267637 0.35046664
-0.010273848 0.08936581 0.35043702
-0.010646153 0.085355699 0.35028297
-0.08221136 0.15671721 0.33433884
-0.083517827 0.15811083 0.33304277
-0.0099394023 0.0785731 0.34941503
-0.011632144 0.080023602 0.34983584
-0.085673906 0.15685284 0.33253384
-0.010696512 0.074728921 0.34906086
-0.011276994 0.076585576 0.34920684
-0.012559559 0.078574076 0.34973252
-0.012198512 0.072824508 0.34885159
-0.013078194 0.073919117 0.34922877
-0.014220145 0.070625544 0.34905094
-0.014955964 0.071727559 0.34907183
-0.013882775 0.066064119 0.34716475
-0.015219856 0.068070412 0.34783617
-0.016051728 0.070286669 0.34879923
-0.01560634 0.063925341 0.34693035
-0.017670281 0.065896139 0.34797683
-0.017296482 0.062010266 0.34675846
-0.019313339 0.063663237 0.34771389
-0.021332499 0.061647788 0.34745586
-0.10481063 0.14476091 0.32902613
-0.020931803 0.05549084 0.34538826
-0.02233858 0.057074074 0.34612346
-0.023591708 0.059047885 0.34690022
-0.10513894 0.1424886 0.32936421
-0.10678366 0.14396998 0.32800007
-0.021314003 0.05516864 0.34529632
-0.023814294 0.055945184 0.34589115
-0.025232472 0.057098832 0.34649569
-0.10724872 0.14039694 0.32888314
-0.1088483 0.14227137 0.32752946
-0.11057395 0.14271908 0.32666346
-0.026478365 0.053378619 0.34568575
-0.02783449 0.054915 0.34586975
-0.10957125 0.13831159 0.32863063
-0.11101381 0.14014146 0.32712659
-0.11203198 0.14121582 0.32630795
-0.026250064 0.049993217 0.34409124
-0.027769074 0.051303718 0.34459123
-0.029711735 0.052883357 0.3453767
-0.11144927 0.13609558 0.32821536
-0.11307712 0.1378659 0.32666877
-0.1138375 0.13942614 0.32586893
-0.030324496 0.049096663 0.34403417
-0.031999435 0.050567836 0.34482068
-0.11349325 0.13419141 0.32777119
-0.11416617 0.13669623 0.3260169
-0.031540964 0.047820013 0.34360084
-0.034092925 0.048738066 0.34433359
-0.1155872 0.13172325 0.32731223
-0.034765329 0.044641126 0.3428559
-0.036238078 0.04680714 0.34356701
-0.038251694 0.047397997 0.34338599
-0.11611424 0.1276121 0.32719934
-0.11723888 0.12940924 0.32647705
-0.1193171 0.13017517 0.3252587
-0.03620328 0.043218456 0.34213516
-0.038323689 0.044721458 0.34284255
-0.039831016 0.046009272 0.34300506
-0.11774217 0.12555802 0.32679573
-0.11860839 0.12763241 0.32613456
-0.11986469 0.12965733 0.32448375
-0.038892165 0.040978223 0.34112138
-0.040312927 0.042658571 0.34188613
-0.042515889 0.044148643 0.34226048
-0.11924104 0.12366053 0.32609344
-0.12152742 0.1242038 0.32386658
-0.12315631 0.12565032 0.32352394
-0.039977144 0.040453728 0.34082446
-0.04229413 0.040872548 0.34059545
-0.044386115 0.042588178 0.34110039
-0.046304464 0.043687202 0.34150249
-0.12166853 0.12148517 0.32430005
-0.12256029 0.12352695 0.32362145
-0.12361737 0.12514415 0.32341099
-0.044456087 0.0393175 0.33979312
-0.046366192 0.040568873 0.34029475
-0.048577756 0.042474598 0.34086317
-0.050496399 0.04331091 0.34054914
-0.046350181 0.038194623 0.33934566
-0.048317194 0.038773 0.33947843
-0.050608955 0.040530935 0.33984795
-0.052369073 0.04167882 0.34009773
-0.050558656 0.038180571 0.33942026
-0.052806724 0.03890055 0.33951592
-0.05478432 0.040033486 0.33952332
-0.055027008 0.037791707 0.33925873
-0.057006564 0.038507689 0.33871931
-0.059065826 0.039668553 0.33855009
-0.059450995 0.036692016 0.33695209
-0.061066128 0.038284164 0.3373546
-0.063052729 0.039555229 0.33755982
-0.060675237 0.03564145 0.33606571
-0.062810197 0.03654005 0.33588833
-0.065088026 0.038354568 0.33669513
-0.067394547 0.039565928 0.33666724
-0.066779353 0.037498269 0.33599088
-0.069248885 0.038603365 0.33616486
-0.071567222 0.039992075 0.33573207
-0.073532932 0.040932447 0.33530468
-0.12282478 0.091118835 0.32504717
-0.12381945 0.093463846 0.32479253
-0.12514819 0.095623188 0.32374486
-0.072226688 0.036784038 0.33386117
-0.073303849 0.038332235 0.33450839
-0.075643368 0.040026572 0.33468387
-0.077852711 0.040979702 0.33432987
-0.12237553 0.087315217 0.3250823
-0.12345304 0.089095883 0.32455865
-0.12534603 0.091261543 0.32356364
-0.12680671 0.093186364 0.32226494
-0.073094115 0.035724286 0.33326226
-0.07513722 0.036716618 0.33299309
-0.077495009 0.038390342 0.33322513
-0.07984139 0.040276311 0.33352312
-0.082322493 0.041772511 0.33333415
-0.084167957 0.043016899 0.33293906
-0.12292586 0.082641691 0.32487649
-0.12371109 0.08489418 0.3241117
-0.12499954 0.087166563 0.32273832
-0.12679149 0.08930219 0.32214677
-0.12792596 0.091533363 0.32185155
-0.077212244 0.036125384 0.33233914
-0.07909064 0.037164818 0.33193311
-0.08145988 0.038574528 0.33177733
-0.08372061 0.040393252 0.33204556
-0.085940689 0.042319171 0.33215278
-0.088252209 0.044116676 0.3319684
-0.090436503 0.045828238 0.33157229
-0.11883388 0.07430125 0.32565519
-0.12021559 0.075853176 0.32537019
-0.12204207 0.078403533 0.32500216
-0.1235081 0.080607884 0.32426846
-0.12499817 0.082759291 0.32293481
-0.12638201 0.085253164 0.32209077
-0.12747556 0.087242991 0.32187846
-0.083394915 0.037889134 0.33097354
-0.085130416 0.039042309 0.33062449
-0.087516434 0.040592588 0.33045962
-0.089859582 0.042561818 0.33059561
-0.092163488 0.044621382 0.33077133
-0.094451904 0.046357147 0.33055764
-0.096864752 0.048199359 0.33016181
-0.098836653 0.049861383 0.32974541
-0.11031486 0.061305285 0.32735261
-0.11180301 0.063013658 0.32704628
-0.11382155 0.065094762 0.32662669
-0.11574198 0.06747061 0.32623437
-0.11742254 0.069856986 0.32563719
-0.11918819 0.072174646 0.32508138
-0.12123161 0.074388929 0.3243714
-0.12312214 0.076612875 0.32369348
-0.12466216 0.078784324 0.32288566
-0.12601967 0.080963142 0.32209778
-0.089580089 0.040189222 0.32961667
-0.091303438 0.041385956 0.32924834
-0.093641788 0.042957034 0.32900709
-0.09603136 0.044819824 0.32886913
-0.098228142 0.046802692 0.32877934
-0.10029215 0.048858326 0.32878184
-0.1024957 0.050842103 0.32848743
-0.10468352 0.053066045 0.32805783
-0.10675913 0.055230491 0.3276394
-0.10882916 0.057307512 0.32718199
-0.11078285 0.059514746 0.32684276
-0.11293468 0.061641593 0.32611862
-0.1149597 0.063720562 0.32556835
-0.11695189 0.065813303 0.3249861
-0.11889569 0.067932725 0.3241342
-0.12088786 0.070201665 0.32340762
-0.12247715 0.072513394 0.32283953
-0.12364899 0.074672312 0.32252347
-0.097701289 0.044073444 0.32785022
-0.099572226 0.045478921 0.32745221
-0.10174285 0.047462087 0.3271406
-0.1039471 0.049368501 0.32683936
-0.1061004 0.05137568 0.32663977
-0.10815798 0.053437192 0.32611582
-0.11020359 0.055521674 0.3256259
-0.11213446 0.057718545 0.32510099
-0.11408284 0.059924319 0.32453385
-0.1161599 0.062153026 0.32399657
-0.11808517 0.064307213 0.32359937
-0.11986408 0.066504456 0.32323581
-0.12121138 0.068155073 0.32296032
-0.020208187 0.12947741 0.34991828
-0.021384392 0.13103743 0.3496798
-0.02321614 0.13326889 0.349305
-0.025123816 0.13535421 0.34891051
-0.0271856 0.1375138 0.34848252
-0.029174853 0.13968113 0.34807104
-0.031409081 0.14168425 0.34760135
-0.033557784 0.14373265 0.34715179
-0.035585798 0.14566149 0.34672737
-0.037552066 0.14736971 0.34631309
-0.015356384 0.12103313 0.35086676
-0.016644429 0.12309069 0.3506428
-0.018462505 0.12513439 0.35032761
-0.020477209 0.12736358 0.34986722
-0.022611987 0.12951928 0.34972468
-0.036810338 0.14459084 0.34671697
-0.03902436 0.14675008 0.34596974
-0.041304391 0.14836885 0.34548303
-0.043711878 0.14989981 0.34496599
-0.045281205 0.15112749 0.34463301
-0.011734243 0.11260316 0.35153785
-0.01271046 0.11432071 0.35134727
-0.014406078 0.11663762 0.35107043
-0.016316544 0.11893744 0.3509551
-0.018504944 0.12112897 0.35099274
-0.042775281 0.14764453 0.34513819
-0.044756263 0.14933208 0.34472018
-0.047160968 0.15100721 0.3442063
-0.049722768 0.15234677 0.34365106
-0.051561628 0.15348113 0.34325558
-0.012644198 0.11067033 0.35129857
-0.014115926 0.1126143 0.35129628
-0.01625235 0.11465015 0.35145026
-0.05134467 0.15253735 0.34328812
-0.052492939 0.15337406 0.34304333
-0.011203997 0.1037956 0.35150394
-0.012506396 0.10600284 0.35137257
-0.014229257 0.10836403 0.35138226
-0.010635652 0.099825829 0.35156304
-0.012165699 0.10194607 0.35152248
-0.010564506 0.095828243 0.35150939
-0.012020808 0.097891666 0.35148305
-0.011080187 0.091533609 0.35131803
-0.012018401 0.093529977 0.3513999
-0.011125959 0.087210603 0.35123229
-0.012097053 0.089165166 0.35119194
-0.012362208 0.085196719 0.3511934
-0.012928296 0.081155993 0.35071957
-0.013796061 0.076548152 0.35044327
-0.014760941 0.074687928 0.35019284
-0.016288336 0.072513536 0.34985453
-0.017265216 0.068593405 0.34952098
-0.018118184 0.070166744 0.34974289
-0.019089095 0.066658214 0.34907529
-0.020224225 0.068062283 0.3494564
-0.020801689 0.064407274 0.34864917
-0.022434507 0.061983023 0.34823811
-0.024474699 0.060130626 0.347745
-0.026747447 0.057753418 0.34727815
-0.10668842 0.13928458 0.33055714
-0.028697323 0.056018606 0.34671956
-0.10872659 0.13735506 0.33006313
-0.031001113 0.053769078 0.34615999
-0.032562885 0.055301853 0.34653085
-0.11073898 0.13509521 0.32956922
-0.032899596 0.051769268 0.34569636
-0.034596376 0.053080633 0.34599438
-0.11303995 0.13321292 0.32901669
-0.035177141 0.049775567 0.34514716
-0.036643371 0.051029123 0.34526429
-0.11482781 0.13094917 0.32857341
-0.036828443 0.048423275 0.34475067
-0.038737215 0.048968237 0.34475252
-0.11584191 0.12938109 0.32831705
-0.040857568 0.047068898 0.34396705
-0.042998958 0.048929676 0.34453452
-0.042987462 0.045505904 0.34330869
-0.044938296 0.046820059 0.34367976
-0.044991486 0.044384971 0.34283656
-0.047061849 0.045052189 0.34259516
-0.049211159 0.044014353 0.34187701
-0.051162921 0.044903491 0.3420029
-0.053358153 0.043002304 0.34123424
-0.0553081 0.044606354 0.34142888
-0.055477716 0.041247729 0.34041339
-0.057260811 0.042531371 0.34031358
-0.059377447 0.040879816 0.33952618
-0.061514221 0.042480811 0.33956021
-0.061441749 0.040120468 0.33904675
-0.063547522 0.040886294 0.33861509
-0.065616377 0.042639516 0.33885694
-0.065479279 0.040043786 0.33813351
-0.067623608 0.040915355 0.33773938
-0.06979537 0.042600222 0.33785671
-0.069623746 0.040112223 0.33719864
-0.07139162 0.041188493 0.3368181
-0.073888354 0.042532951 0.33673233
-0.076221459 0.044573884 0.33716875
-0.12257224 0.091017887 0.32612777
-0.075837202 0.041349784 0.33581683
-0.077966347 0.0426649 0.33560202
-0.080172002 0.04460793 0.33560458
-0.12115832 0.084935874 0.32634106
-0.12166633 0.08696723 0.3262617
-0.12230547 0.089356914 0.32615906
-0.079688914 0.041693307 0.33495289
-0.081794396 0.04293194 0.33449897
-0.084032975 0.04471565 0.33422571
-0.086353332 0.046773326 0.33420742
-0.11891737 0.078402855 0.32673323
-0.12018577 0.080466121 0.32648271
-0.12163182 0.082816906 0.32619712
-0.12274918 0.084793881 0.32597923
-0.085785553 0.04379927 0.33361268
-0.087858565 0.045264535 0.33317003
-0.090320714 0.047119766 0.33268124
-0.092538677 0.048524681 0.33216983
-0.095149517 0.050136384 0.33195004
-0.097121701 0.051606085 0.33178666
-0.11565556 0.071953766 0.3277629
-0.11764471 0.074124672 0.32708463
-0.11943687 0.076444142 0.32658169
-0.12117067 0.078775711 0.32623076
-0.12255733 0.081158534 0.32595918
-0.092500329 0.046624456 0.33214539
-0.094098561 0.0475519 0.33180058
-0.096319892 0.049156047 0.33132684
-0.098644361 0.051152796 0.33087939
-0.10090329 0.053077571 0.33052745
-0.10290149 0.055222519 0.33034432
-0.10506128 0.057285417 0.32998839
-0.10717531 0.059406936 0.32951826
-0.10912874 0.061662845 0.32890612
-0.1110235 0.063778758 0.32830814
-0.11309919 0.065882728 0.32782888
-0.11500529 0.068147562 0.32743788
-0.11660868 0.070615664 0.32711878
-0.11835805 0.072858334 0.32676283
-0.10080805 0.050755098 0.3303411
-0.10230124 0.051933579 0.33002436
-0.10407077 0.053770483 0.32965675
-0.10614564 0.055977937 0.32922664
-0.10828108 0.058154214 0.32878229
-0.1098837 0.060004257 0.32845265
