# .PCD v0.7 - Point Cloud Data file format
VERSION 0.7
FIELDS x y z
SIZE 4 4 4
TYPE F F F
COUNT 1 1 1
WIDTH 1358
HEIGHT 1
VIEWPOINT 0 0 0 1 0 0 0
POINTS 1358
DATA ascii
0.034443937 -0.13699736 0.33595723
0.029454134 -0.13733847 0.3359271
0.028109428 -0.13630988 0.33565539
0.025558241 -0.13618761 0.3354004
0.023184627 -0.13589074 0.33511913
0.02139134 -0.13561326 0.33490917
0.092844099 -0.14061388 0.33620656
0.090388477 -0.14074306 0.33619222
0.087743878 -0.14067635 0.33617961
0.08515925 -0.14071684 0.3360534
0.082592882 -0.14064406 0.33585912
0.080088578 -0.14079741 0.33598173
0.077515908 -0.14083554 0.33612525
0.074704267 -0.14095549 0.33583513
0.072231293 -0.14069995 0.33563438
0.069722436 -0.1410391 0.33589664
0.067860648 -0.14108288 0.33607271
0.061111037 -0.1412499 0.33603594
0.060333211 -0.14123029 0.33603221
0.040624663 -0.13987936 0.33594972
0.038370561 -0.139695 0.33594066
0.036351807 -0.13850471 0.33594659
0.029434569 -0.13811624 0.33591649
0.028892044 -0.13802473 0.33591494
0.092060551 -0.14234175 0.33617929
0.090295531 -0.14237504 0.33616984
0.087704748 -0.1422319 0.33615851
0.084863737 -0.14226094 0.33569914
0.082585521 -0.14221384 0.33479917
0.079898573 -0.14218785 0.33529308
0.0771688 -0.1425411 0.33575949
0.074833244 -0.14292367 0.33518633
0.072184503 -0.14288636 0.33507037
0.069500759 -0.14281459 0.3351562
0.066978917 -0.14310044 0.33571577
0.06412556 -0.1432922 0.33583757
0.06177282 -0.14279817 0.33557093
0.060201198 -0.14254434 0.33590853
0.073335066 -0.14441915 0.33505541
0.069465391 -0.14432155 0.33503696
0.066657558 -0.14447597 0.33597302
0.064400434 -0.14439735 0.33587378
0.061880846 -0.14413027 0.33500081
0.06686376 0.051514726 0.33967316
0.06156097 0.051330384 0.3396436
0.087865174 0.048059825 0.33973372
0.084738329 0.048138674 0.33971879
0.081596635 0.048758294 0.33971116
0.079569064 0.04868466 0.33993673
0.076707631 0.048988651 0.33986941
0.074357696 0.049050543 0.33982635
0.071760833 0.049291883 0.33968747
0.069116838 0.049308669 0.33997378
0.066585742 0.049534488 0.33996326
0.064112991 0.049412344 0.33968961
0.061574049 0.04977737 0.33962277
0.058898009 0.049416091 0.33960417
0.056201227 0.049296398 0.33958873
0.053563118 0.0492859 0.33957511
0.051506899 0.049502376 0.33956751
0.096549556 0.045025077 0.33973703
0.094915047 0.045347895 0.33973306
0.092402667 0.04571816 0.33972532
0.089730799 0.046188738 0.33999747
0.087317698 0.046483915 0.34004721
0.084730901 0.046643544 0.3401629
0.082117677 0.046667058 0.34035221
0.079583392 0.046718735 0.34057069
0.076833941 0.046809908 0.34057474
0.074307464 0.046915043 0.34052572
0.071934901 0.047284115 0.34026092
0.069041856 0.047811482 0.34053424
0.066651016 0.047688555 0.3406204
0.06475018 0.048175562 0.34001723
0.058233552 0.048015293 0.33962342
0.056064215 0.047462959 0.34019148
0.053606257 0.047342341 0.33992711
0.050930582 0.047330182 0.3397418
0.048375469 0.047207404 0.33956897
0.045780823 0.047070984 0.33950543
0.043393768 0.046818804 0.33948979
0.040585201 0.046683516 0.33947355
0.039015569 0.046476115 0.33946273
0.10233119 0.042892609 0.33973771
0.10020804 0.043070871 0.33977023
0.097468838 0.043294575 0.34007686
0.095066942 0.043702271 0.34025329
0.092527814 0.04384334 0.34039909
0.089848205 0.043852437 0.34068692
0.087303199 0.04412223 0.34067765
0.084754951 0.044604693 0.34067121
0.082123496 0.044686589 0.34065887
0.079462469 0.044347484 0.3406406
0.077098131 0.044754062 0.34063411
0.074754782 0.045228753 0.34062856
0.05530943 0.04582398 0.34053725
0.053557947 0.045641098 0.34052581
0.050644219 0.045366738 0.34050727
0.048319787 0.045234274 0.34033352
0.045587368 0.045151304 0.34012926
0.043036066 0.044998709 0.33996338
0.040440328 0.044967834 0.33956403
0.038081579 0.044884261 0.33943653
0.035270821 0.044248823 0.33941346
0.032076202 0.044252533 0.33939719
0.031135537 0.044171978 0.33939129
0.11205795 0.039628211 0.33974326
0.1104643 0.040020358 0.33974046
0.1079521 0.040279273 0.33973119
0.10528252 0.04052883 0.33980095
0.10261718 0.040751908 0.34040266
0.10030822 0.041321162 0.34057179
0.097651109 0.041542944 0.34069571
0.095057413 0.041883361 0.34068704
0.09224987 0.041756909 0.340671
0.090087309 0.041690927 0.34065902
0.088241436 0.042478111 0.34066024
0.044766974 0.042977173 0.34044486
0.042820185 0.042933453 0.34043437
0.04056447 0.043079253 0.34027094
0.037801605 0.042716455 0.33977085
0.035214275 0.042707141 0.33979779
0.032595839 0.042583194 0.33953455
0.030495938 0.042491082 0.33936536
0.11464499 0.036747243 0.33971751
0.11292735 0.037803974 0.33979994
0.1105494 0.038182434 0.34028938
0.10799687 0.038380142 0.34057772
0.10539775 0.038801935 0.34060377
0.10285632 0.039007846 0.34068799
0.10126892 0.039529424 0.34068692
0.037161246 0.041041438 0.34037983
0.035149861 0.040406 0.34036091
0.032407854 0.040248688 0.34013778
0.02994987 0.040008795 0.33949772
0.027465604 0.039910834 0.33939081
0.024916943 0.039754834 0.33929989
0.022843406 0.039305847 0.33928308
0.11783713 0.034289028 0.33970055
0.11529844 0.035295364 0.33995619
0.11309738 0.035448227 0.34057438
0.11074868 0.035793658 0.3406848
0.10880271 0.036417987 0.34068331
0.03166749 0.038271662 0.34031427
0.029575046 0.038032945 0.34030041
0.027165487 0.037731592 0.34017619
0.024680834 0.037629467 0.33973977
0.022373643 0.0374198 0.33933374
0.01977554 0.036793459 0.33923343
0.12265289 0.031695973 0.33969006
0.12041236 0.032111671 0.33978111
0.11822893 0.032747019 0.34022722
0.11540689 0.033262763 0.34067434
0.11333084 0.033613387 0.34066847
0.026342701 0.035969239 0.34025595
0.024508268 0.035613757 0.34024179
0.022018936 0.035300855 0.33998719
0.019396391 0.035264667 0.33977085
0.01702458 0.034933191 0.33933228
0.014387053 0.034715276 0.33917785
0.12820649 0.028583754 0.33967635
0.12561178 0.029274907 0.33967251
0.12305398 0.029752892 0.33992401
0.12097427 0.030177858 0.3405225
0.11881295 0.030871872 0.34065938
0.021039501 0.033482876 0.34019521
0.019158777 0.032840792 0.34017685
0.016641412 0.032692295 0.33986652
0.014165606 0.032556165 0.33934042
0.011875588 0.032276373 0.33913207
0.13023075 0.02613413 0.33965355
0.12823409 0.026902761 0.33967561
0.12581682 0.027158763 0.33991081
0.12330395 0.027350362 0.34040385
0.12164213 0.028076593 0.34063607
0.018144146 0.030883361 0.34014526
0.016619105 0.030551922 0.34013301
0.013846301 0.030271929 0.34006655
0.011592485 0.030084226 0.3393307
0.0092869177 0.029807474 0.33908543
0.1359155 0.023858663 0.33965185
0.13342774 0.024309035 0.33981198
0.13091938 0.024485584 0.33989203
0.12834817 0.024709698 0.34036216
0.12572001 0.024711687 0.34061128
0.12380204 0.025770683 0.3406159
0.01299214 0.028157357 0.34008205
0.011225924 0.027750041 0.33991817
0.0090252385 0.027609583 0.3397035
0.0063668601 0.027362492 0.33915991
0.0046249107 0.026799079 0.33902085
0.13593939 0.021990474 0.33962679
0.13360271 0.022029106 0.34035137
0.13098128 0.02208114 0.34060258
0.12822108 0.022275519 0.3405911
0.12596622 0.022473138 0.3405824
0.010513458 0.025753219 0.34003684
0.0087238625 0.025147054 0.34001943
0.0061764196 0.025236022 0.33947751
0.0037856586 0.025169719 0.33899462
0.14233044 0.01790322 0.33960402
0.13820958 0.018890981 0.33959642
0.13601153 0.019235123 0.33986694
0.13354452 0.019436132 0.34044287
0.13140573 0.020240959 0.3405799
0.0084270462 0.022784103 0.339986
0.0060513951 0.022645008 0.33981335
0.0035335682 0.022571009 0.33941886
0.0012619421 0.022259731 0.33910602
-0.00072281808 0.021511082 0.33892196
0.14278767 0.017422404 0.33959985
0.14115116 0.016629376 0.33958074
0.13850689 0.016566601 0.33956653
0.1360683 0.01662761 0.34030476
0.13389729 0.01731528 0.34055305
0.0058396235 0.020905327 0.33994743
0.0031812973 0.020436984 0.33992755
0.00062184036 0.02010737 0.33968905
-0.0014082044 0.019805517 0.33926287
0.14318609 0.013473175 0.33954847
0.1410273 0.013816308 0.3395586
0.13854992 0.014049202 0.34003264
0.13670325 0.014492895 0.34052923
0.00039298832 0.017716873 0.33987647
-0.0017959625 0.017503027 0.33986229
-0.0042070672 0.017255355 0.3391245
-0.0062838793 0.016864609 0.33883071
0.14519653 0.010913294 0.33952409
0.14365096 0.011304837 0.3395645
0.14113542 0.011486929 0.34001115
0.13906413 0.011743069 0.34050411
-0.0004651472 0.016103573 0.33985025
-0.0021303147 0.015816867 0.33983782
-0.0045708194 0.015304241 0.33949405
-0.0069111362 0.014947072 0.33893159
-0.0087365508 0.01389173 0.33877796
0.14538975 0.0082995221 0.33948973
0.14355142 0.0086091571 0.33992293
0.14116837 0.008995723 0.34047762
0.13953833 0.0098215006 0.34048054
-0.0051882863 0.012719207 0.33978033
-0.0071951002 0.012449503 0.33936015
-0.0094508678 0.01211844 0.33882543
0.14787325 0.0056558102 0.33946666
0.14597197 0.0057912841 0.3399033
0.14377435 0.0061374232 0.34025583
0.14206165 0.0070067346 0.34045535
-0.0056273714 0.010888718 0.33975333
-0.0076178163 0.01020005 0.3397339
-0.0098744258 0.0099114366 0.33928627
-0.011804648 0.0098393783 0.33870751
0.14822012 0.0029461086 0.33954614
0.14611334 0.0034894682 0.34035891
0.14400876 0.0044108555 0.34043017
-0.0084685534 0.0079419911 0.33969894
-0.010165952 0.0076003484 0.33955857
-0.011976793 0.0072126873 0.33887115
0.15043265 0.00027657673 0.33940694
0.14864327 0.00067325309 0.33971909
0.14662731 0.0010058992 0.34039754
-0.010998778 0.005050309 0.33964688
-0.012480907 0.0047366023 0.33908853
-0.014882781 0.0045317672 0.33862004
0.1507529 -0.0021176152 0.3393763
0.1486851 -0.0019072667 0.33995521
0.14696933 -0.0013061166 0.34036794
-0.011174969 0.0028538443 0.3396163
-0.012689859 0.0022671185 0.33939362
-0.01503633 0.002212707 0.33875009
-0.016616553 0.0016387105 0.33857194
0.15283239 -0.0049187355 0.33934894
0.15109789 -0.0045452975 0.33952704
0.14879879 -0.0042973049 0.34023333
-0.013395637 0.00051243976 0.33957326
-0.015329614 -0.0001850687 0.33917725
-0.017222375 -0.00061753392 0.33864957
0.15496674 -0.008382719 0.33931297
0.15339127 -0.0073863566 0.33931854
0.1512298 -0.0066855066 0.33976695
0.14938277 -0.0061213262 0.34031516
-0.01563631 -0.0029074885 0.33951557
-0.017659307 -0.0029262044 0.33888954
0.15495887 -0.0086953752 0.33930871
0.15324976 -0.0097731501 0.33940414
0.15102276 -0.0098073743 0.34018904
0.14895651 -0.010028929 0.34026012
-0.01585079 -0.0050078556 0.33948606
-0.017967984 -0.0054439157 0.33911055
-0.019980699 -0.0058298148 0.33868238
0.15316746 -0.012001768 0.33962992
0.15107471 -0.012140147 0.34024236
0.14935577 -0.011360891 0.34024414
-0.018367104 -0.0080856457 0.33935332
-0.020391002 -0.0081476346 0.33858213
-0.022329412 -0.0090421103 0.33839828
0.1551289 -0.015756354 0.33921406
0.15329352 -0.015059661 0.33978999
0.15175307 -0.014546443 0.34021327
-0.018640645 -0.010514088 0.33937556
-0.02071014 -0.010657888 0.33875182
-0.022901617 -0.01070147 0.33837301
0.15720865 -0.018763581 0.33918402
0.15555364 -0.017660184 0.33933574
0.15378979 -0.017395183 0.34015816
-0.019097589 -0.01309469 0.33936006
-0.020984277 -0.013073664 0.33916637
-0.023101144 -0.013210591 0.33839262
0.15785037 -0.020202525 0.33916789
0.15564516 -0.020218695 0.33947697
0.15392588 -0.019908914 0.34015185
-0.019354224 -0.014798639 0.33933568
-0.021124825 -0.015664348 0.3392821
-0.023238614 -0.015599223 0.3385202
-0.024821036 -0.016049867 0.33829072
0.15815401 -0.022952644 0.33913231
0.15597516 -0.022791639 0.33986926
-0.019466422 -0.018946085 0.33927903
-0.021137655 -0.018426381 0.33899167
-0.023453884 -0.018306101 0.33830789
-0.025288977 -0.018529348 0.33825484
0.15764847 -0.02550113 0.33909521
0.15607572 -0.025358867 0.33984908
-0.019607984 -0.01988576 0.33926558
-0.021221727 -0.020365814 0.33925086
-0.023444854 -0.021036126 0.33908752
-0.026043259 -0.021211628 0.33823699
0.15976328 -0.029152336 0.33905652
0.1581164 -0.02815037 0.33933038
0.15638895 -0.027847769 0.34005705
-0.019569419 -0.024602951 0.33920196
-0.021331511 -0.024116836 0.33919954
-0.023672529 -0.023519926 0.33915552
-0.026037864 -0.023414414 0.33840853
0.16513672 -0.031933844 0.34004644
0.16286185 -0.0310953 0.33928144
0.16078983 -0.030779324 0.33903989
0.1583146 -0.030719966 0.33951515
0.15642092 -0.030647263 0.34001932
-0.019742362 -0.025227424 0.33919263
-0.021431208 -0.025698373 0.33917764
-0.023727514 -0.026191868 0.33915913
-0.026157223 -0.026094802 0.33843386
-0.027918324 -0.027234655 0.33812359
0.16508508 -0.032999899 0.34003171
0.16305684 -0.033306811 0.33929381
0.16075149 -0.033400849 0.33900422
0.15826374 -0.033336505 0.33966833
0.15599282 -0.033558279 0.3399778
-0.024557844 -0.028021457 0.33913022
-0.026506469 -0.028427778 0.33842245
-0.02804438 -0.028852651 0.33810106
0.16244 -0.035818312 0.33897999
0.1606714 -0.035894249 0.33897009
0.15820779 -0.035844736 0.33968025
0.15587573 -0.03567538 0.33994848
-0.024879672 -0.031952098 0.33907542
-0.026533008 -0.031296898 0.33851883
-0.0283029 -0.031465922 0.33806437
0.16266638 -0.038125835 0.33895001
0.16053858 -0.038472317 0.33893454
0.158167 -0.038514309 0.33974886
0.15652794 -0.0379107 0.33992159
-0.024840534 -0.032896329 0.33906284
-0.026706301 -0.033850517 0.33878773
-0.028810866 -0.033857256 0.33802956
0.16232271 -0.042113602 0.33889422
0.16040209 -0.041317616 0.3389588
0.15834509 -0.041010212 0.33979088
-0.024837501 -0.036941878 0.33900809
-0.02665285 -0.036514558 0.33857271
-0.028775789 -0.036442351 0.33799475
0.16239229 -0.043168444 0.33888033
0.1603882 -0.043509442 0.33905202
0.1580395 -0.043819744 0.33978263
0.15638579 -0.044394542 0.33983317
-0.024227872 -0.038854226 0.33898541
-0.026776627 -0.038950834 0.3384954
-0.028787032 -0.038906883 0.33796135
0.16011164 -0.046521693 0.33882344
0.15794456 -0.046214286 0.33946028
0.15627147 -0.046075087 0.33980981
-0.027156428 -0.041579273 0.33863083
-0.029298648 -0.041633353 0.33792189
-0.030785546 -0.041710254 0.33791313
0.16247758 -0.049517479 0.33879495
0.16023791 -0.04904107 0.33893287
0.15785629 -0.04888922 0.33976546
0.15641019 -0.047591705 0.33979005
-0.027193703 -0.044565953 0.33861637
-0.028908849 -0.044064917 0.33789092
0.16261137 -0.051481802 0.33876908
0.1602293 -0.051431917 0.3387576
0.15806237 -0.051425293 0.33952242
-0.027146995 -0.046893951 0.33860549
-0.029135197 -0.047000073 0.33785009
-0.035835013 -0.047579356 0.33780795
-0.037209086 -0.047559701 0.33835679
0.16236524 -0.054040596 0.3387332
0.16018668 -0.054275732 0.33871895
0.15813433 -0.0544772 0.33926982
-0.025392659 -0.049845088 0.33883074
-0.027154319 -0.049431507 0.33859643
-0.029220238 -0.049186643 0.33782008
-0.035830945 -0.04824689 0.33779892
-0.03744176 -0.049132258 0.33781216
0.16211164 -0.057308648 0.33868766
0.16016161 -0.056850344 0.33868399
0.15780494 -0.056549598 0.33937901
-0.02517131 -0.052229464 0.33879957
-0.027140439 -0.05191882 0.33864731
-0.028984718 -0.052255649 0.33786798
-0.035977736 -0.052216489 0.33774444
-0.036928006 -0.051899217 0.33774397
0.16202134 -0.059354704 0.33865955
0.16008089 -0.059368566 0.33864951
0.15761138 -0.05943561 0.33915827
0.15593505 -0.059448883 0.33962718
-0.025273755 -0.054328494 0.33877063
-0.027195446 -0.054630287 0.3385846
-0.029059514 -0.054278597 0.33790991
-0.037021488 -0.053285167 0.33772469
0.16182606 -0.061857499 0.33862466
0.16003576 -0.06185291 0.33861566
0.15753552 -0.061878778 0.33925521
0.15576227 -0.062038448 0.33959126
-0.027226582 -0.057210654 0.33831468
-0.028761894 -0.056622062 0.33772171
0.16140352 -0.063451692 0.33860087
0.15970775 -0.064347498 0.33858022
0.15748407 -0.064445585 0.33910692
0.15561415 -0.064332366 0.3395595
-0.025432356 -0.060172617 0.33869082
-0.027124546 -0.059770934 0.33803242
-0.028840035 -0.060765464 0.33766529
0.15988514 -0.067150317 0.33854324
0.15730229 -0.067075625 0.33893359
0.15542513 -0.067395285 0.33951712
-0.024836518 -0.062737271 0.33865911
-0.027124621 -0.062449701 0.33802092
-0.029070251 -0.062364925 0.33764246
0.15949789 -0.069553047 0.33850873
0.1571846 -0.069604814 0.33851013
0.15474083 -0.069802471 0.3394492
0.15299711 -0.070772327 0.339459
-0.023260102 -0.065069392 0.33863568
-0.024712846 -0.065159529 0.33862695
-0.02729401 -0.065029576 0.33807012
-0.028923899 -0.064721003 0.33761135
0.15924221 -0.07212428 0.3384726
0.15711448 -0.072259977 0.33845994
0.15443149 -0.072245613 0.33890206
0.15275797 -0.072190411 0.33943856
-0.024915397 -0.067691602 0.33859169
-0.027333431 -0.067651592 0.337951
-0.029011101 -0.067565814 0.3375724
0.15866077 -0.074757151 0.33843392
0.1570476 -0.074917585 0.33842367
0.15428472 -0.074822806 0.33863303
0.15251234 -0.074765973 0.33940253
-0.025027655 -0.070313059 0.33841068
-0.027303621 -0.070195116 0.33764696
-0.02897618 -0.069287419 0.3375493
0.15857172 -0.076520324 0.33840963
0.15677753 -0.077361509 0.33838919
0.15418699 -0.077353306 0.33857876
0.15195766 -0.077548891 0.33936197
-0.023234777 -0.074062288 0.33851415
-0.025086187 -0.072882146 0.33819628
-0.026841573 -0.072563693 0.33751598
0.1564416 -0.079999544 0.33835179
0.15424423 -0.079994962 0.33835435
0.15184622 -0.07993082 0.3390716
0.15004769 -0.080208987 0.33931625
-0.022977024 -0.075847842 0.3383038
-0.024876721 -0.075463846 0.33770904
-0.026593566 -0.075206488 0.33748141
0.1561202 -0.082072556 0.33832198
0.15420496 -0.082198068 0.3383106
0.15152568 -0.082456529 0.33842981
0.14967209 -0.082706168 0.33915865
-0.020423464 -0.07874541 0.33846515
-0.022668593 -0.078166574 0.33821142
-0.024548925 -0.078040838 0.3374536
0.15118273 -0.085090175 0.33825603
0.14916041 -0.085056454 0.33887109
0.14748642 -0.085672855 0.33922929
-0.020169243 -0.080762446 0.33842215
-0.0225076 -0.080686487 0.33788702
-0.024379879 -0.080603674 0.33741975
0.15083781 -0.087756179 0.33821815
0.14898054 -0.087666117 0.33854327
0.14725003 -0.087824494 0.33919895
-0.018031552 -0.083847426 0.33840832
-0.019947842 -0.083380207 0.33788559
-0.022425562 -0.083140597 0.33741245
-0.024183348 -0.082431033 0.33739597
0.15291001 -0.090143293 0.3381964
0.15137738 -0.090434238 0.33818477
0.1489245 -0.090290979 0.33826113
0.14655107 -0.090417579 0.33888489
0.1448143 -0.091065802 0.33914265
-0.017571747 -0.086241648 0.33837828
-0.019856289 -0.086031258 0.33781385
-0.021762118 -0.085164413 0.33737135
0.15088046 -0.092713863 0.33815131
0.14891343 -0.092830017 0.33813977
0.14636427 -0.092865244 0.33822921
0.14397174 -0.093231708 0.33910909
-0.015544794 -0.088914961 0.3383525
-0.017407067 -0.088640884 0.3383466
-0.019291691 -0.088567145 0.33802232
0.15078416 -0.095359392 0.33811507
0.14973485 -0.09525831 0.33811098
0.1456532 -0.095151544 0.33809167
0.14357072 -0.095415287 0.33880991
0.14148745 -0.096082032 0.33905777
-0.015236281 -0.091407493 0.33832029
-0.017561592 -0.091352344 0.33794743
-0.019245729 -0.090931892 0.33740306
0.14496747 -0.09742029 0.3380574
0.14333297 -0.098015293 0.33820325
0.14086577 -0.098075241 0.33902761
0.13926947 -0.098633617 0.33901197
-0.01315587 -0.094643392 0.33828717
-0.015171625 -0.094114363 0.33801815
-0.017106347 -0.093593113 0.33744404
0.14529705 -0.10100563 0.33801061
0.14336412 -0.10050531 0.33805239
0.14084792 -0.10057898 0.33872089
0.13871008 -0.10058776 0.3389827
-0.010821611 -0.097264752 0.33826363
-0.01264482 -0.096686944 0.33824596
-0.014874049 -0.096446536 0.3376568
-0.016492292 -0.095413074 0.33725965
0.14529453 -0.1026611 0.3379882
0.14341083 -0.10261917 0.3379792
0.14070141 -0.10270685 0.3379842
0.13840187 -0.10301451 0.33861488
0.13654935 -0.10379028 0.33892831
-0.010376953 -0.099351108 0.3382377
-0.012762621 -0.099125236 0.33787909
-0.014746472 -0.098928198 0.33724439
0.13972026 -0.10451499 0.33793461
0.13783655 -0.10518739 0.33798498
0.1356461 -0.10566702 0.33850935
0.13389291 -0.10636246 0.33887994
-0.0080561861 -0.10253805 0.33820641
-0.010108434 -0.10197011 0.33793822
-0.012480125 -0.10143793 0.33739275
-0.014330372 -0.1006819 0.33719939
0.13683927 -0.10710162 0.3378849
0.13514113 -0.10796008 0.33788514
0.13311116 -0.10828259 0.33855483
-0.0054112151 -0.10551759 0.33817965
-0.0076086447 -0.10468814 0.33781597
-0.0097608641 -0.10425947 0.33726221
-0.011685953 -0.10335575 0.33717677
0.13449365 -0.11017105 0.33783138
0.13270667 -0.11063294 0.33819765
0.13060845 -0.11103019 0.33876878
-0.0029277727 -0.10748667 0.33816576
-0.0051024184 -0.10726094 0.33798423
-0.0073964298 -0.10694835 0.33734462
-0.0093423426 -0.10637658 0.33714786
0.13588868 -0.11427338 0.33778301
0.13231027 -0.11300993 0.33778191
0.13015856 -0.11327904 0.33805481
0.12774047 -0.11335725 0.33857641
0.12595116 -0.11379386 0.33873883
-0.00068193674 -0.11048223 0.33813664
-0.0026557967 -0.10998972 0.3378199
-0.0048251078 -0.10943232 0.33742654
-0.0068528578 -0.10867891 0.33712941
0.13535276 -0.11519845 0.33776775
0.13215543 -0.11596702 0.33774111
0.13004872 -0.11584684 0.33773205
0.12734064 -0.1156844 0.33787531
0.12504987 -0.11595418 0.33857062
0.12264432 -0.11656117 0.33868447
0.0043640807 -0.11379294 0.33811766
0.0025462396 -0.11355844 0.33811149
3.0137599e-05 -0.11271764 0.33772647
-0.0022896305 -0.11229743 0.33720687
-0.0040654913 -0.1113694 0.33710727
0.13232508 -0.11782898 0.33771673
0.12970066 -0.11724591 0.33771119
0.1270496 -0.11785214 0.33768952
0.12475976 -0.11814879 0.33774632
0.12219228 -0.11826973 0.33821031
0.12012199 -0.11866492 0.33864316
0.006791871 -0.11623849 0.33809701
0.0049810186 -0.11548983 0.33790082
0.0026676245 -0.11519618 0.33759686
0.0002919212 -0.11486232 0.33721355
-0.0016816631 -0.11403668 0.33708337
0.12440711 -0.11989132 0.33764833
0.12192632 -0.12065229 0.33762553
0.11951953 -0.12080206 0.33814359
0.11720421 -0.12143363 0.33859077
0.11555528 -0.12170647 0.3385787
0.01185596 -0.11909114 0.33808428
0.010021057 -0.11854941 0.33808225
0.0075011067 -0.11807546 0.33798191
0.005181171 -0.11785626 0.33732775
0.0028350092 -0.11736564 0.33706149
0.0010174587 -0.11660762 0.33706239
0.12113762 -0.12278174 0.33759254
0.1193143 -0.12332895 0.3375921
0.11689632 -0.12328736 0.33813554
0.11486046 -0.12365191 0.33854884
0.012287039 -0.12087058 0.33800837
0.010450825 -0.12064227 0.3376486
0.0075963177 -0.1204906 0.33731899
0.005864013 -0.120067 0.33704036
0.11864603 -0.12492265 0.33755085
0.11659531 -0.12547949 0.33755571
0.11437644 -0.12580632 0.33781573
0.11129559 -0.12609342 0.33813021
0.10932864 -0.12637794 0.33848369
0.019734714 -0.12463489 0.33804953
0.017889343 -0.12416583 0.33804646
0.015296195 -0.12380835 0.33803803
0.012714911 -0.12336758 0.33744633
0.010292403 -0.12291388 0.33704895
0.0084216744 -0.12259528 0.33701921
0.11367526 -0.12825525 0.33748049
0.11143027 -0.12836085 0.33746764
0.10893322 -0.1283288 0.33785525
0.10664276 -0.12852572 0.33830523
0.103754 -0.12897052 0.33842006
0.10215957 -0.12922901 0.33840847
0.024779864 -0.12719885 0.33804062
0.0230125 -0.12671837 0.33803812
0.020527039 -0.12623861 0.33803183
0.017841637 -0.12605034 0.337926
0.015390646 -0.12591977 0.33736292
0.013355304 -0.12546264 0.33705336
0.11318304 -0.13105017 0.33744007
0.11153536 -0.13040254 0.33744046
0.10871897 -0.13041995 0.33742586
0.1062675 -0.13071194 0.33752534
0.10370241 -0.1306724 0.33773011
0.1011279 -0.13104096 0.33810276
0.098683648 -0.1312013 0.33836403
0.096152991 -0.1314719 0.33834743
0.030279353 -0.12975679 0.33803412
0.028150029 -0.12919773 0.33803082
0.025562827 -0.1289008 0.33770573
0.023136314 -0.12876102 0.33787012
0.020466018 -0.1287396 0.33782655
0.018015169 -0.12848035 0.33745924
0.01582725 -0.12800939 0.33698383
0.11307642 -0.13271289 0.33741701
0.11228791 -0.13282509 0.33741146
0.10559285 -0.1323851 0.33738321
0.10349667 -0.13256398 0.33737013
0.10085023 -0.13287455 0.33744684
0.098474003 -0.13302478 0.33762583
0.095793858 -0.13310134 0.33790129
0.093243547 -0.133376 0.33825758
0.09066572 -0.13371646 0.33828908
0.088798344 -0.13399254 0.33827579
0.037448816 -0.13294202 0.33802766
0.036663212 -0.1329222 0.3380239
0.032919344 -0.13219896 0.33801457
0.030903891 -0.13155004 0.33758262
0.028134689 -0.13146366 0.3377752
0.025972854 -0.13106981 0.33712643
0.022971015 -0.13056211 0.33712873
0.020758659 -0.13036171 0.33736435
0.018929694 -0.13009512 0.33697143
0.09790954 -0.13474633 0.33731201
0.095531814 -0.13541728 0.33729091
0.093028404 -0.13559085 0.33737168
0.090614825 -0.13561746 0.33791974
0.088043049 -0.13580966 0.3378242
0.085153878 -0.13619058 0.33796653
0.082793646 -0.13615645 0.33821583
0.081119999 -0.13645393 0.33820325
0.076746158 -0.13636982 0.33818203
0.074958414 -0.13622132 0.33817485
0.07216052 -0.13621184 0.33816072
0.070195429 -0.13615745 0.33815143
0.038078938 -0.13475092 0.33800644
0.035831571 -0.13442665 0.33790058
0.033437252 -0.13420331 0.33799005
0.030727517 -0.13410588 0.33733755
0.028083093 -0.13314173 0.33697701
0.026470192 -0.13299674 0.33697069
0.092120551 -0.13725963 0.33724844
0.090363219 -0.13746561 0.33723667
0.087868534 -0.13788858 0.33721834
0.085103303 -0.13781418 0.3372978
0.082669556 -0.13793652 0.33748221
0.080125816 -0.13817471 0.33777225
0.07746999 -0.13813818 0.33797249
0.074915327 -0.13794667 0.33785582
0.072227918 -0.13780126 0.33755818
0.069693364 -0.13777311 0.33772162
0.067153431 -0.13804136 0.3380712
0.064289801 -0.1378669 0.33809814
0.061963201 -0.13787976 0.3380861
0.060299635 -0.13829744 0.33807194
0.04011035 -0.13803363 0.33697227
0.038153995 -0.13714874 0.33762214
0.036109485 -0.13653757 0.33722705
0.033327837 -0.13628709 0.33770552
0.0305872 -0.13677302 0.33762491
0.029090993 -0.13660857 0.33693525
0.081739038 -0.13950066 0.33716509
0.080098987 -0.1396053 0.33715528
0.077136427 -0.13981329 0.3371374
0.074908897 -0.13990337 0.33712482
0.072149061 -0.139594 0.3371149
0.069459796 -0.13992795 0.33709669
0.066900685 -0.14003241 0.33742884
0.064372443 -0.14013171 0.338009
0.061764233 -0.14010221 0.33761308
0.059938192 -0.14010711 0.33722416
0.040242631 -0.13857925 0.33696556
0.03852674 -0.13879666 0.33695391
0.036868781 -0.13836902 0.33695117
0.030329969 -0.13846661 0.3373239
0.066226847 -0.14185566 0.33705395
0.064346269 -0.14215106 0.33725104
0.062230349 -0.1417921 0.33707988
0.060100872 -0.14145783 0.33702806
0.073678702 0.045745242 0.34163016
0.08672823 0.043095913 0.34171984
0.084607854 0.044138003 0.34166428
0.082141861 0.04440834 0.34165534
0.078367978 0.043731149 0.34162685
0.076841488 0.043406058 0.34219807
0.074275859 0.044047441 0.34178841
0.072124057 0.043612141 0.34159338
0.099867493 0.040011678 0.34168643
0.097430266 0.040452901 0.34167993
0.094830051 0.040636782 0.34176007
0.09253227 0.040666629 0.34165782
0.089580648 0.040638808 0.34164235
0.087210603 0.041337941 0.34219834
0.085764758 0.041062046 0.34262866
0.080827318 0.040246461 0.34292579
0.079110928 0.040790465 0.34272432
0.076731093 0.041450795 0.34313717
0.074072756 0.041452099 0.34284297
0.071839906 0.041705158 0.34240755
0.047182586 0.041082527 0.34243181
0.045478143 0.042031456 0.34200349
0.043829985 0.041467134 0.34201986
0.037385009 0.041289072 0.34138444
0.10709925 0.037178602 0.34168503
0.10512294 0.037542146 0.34167987
0.10263921 0.037820969 0.34167096
0.10015006 0.038226191 0.34179419
0.097654685 0.038317796 0.34207481
0.094862826 0.038465302 0.3426128
0.09223488 0.038467471 0.34254032
0.089684129 0.038531575 0.34247711
0.08724317 0.038784366 0.3428055
0.084459551 0.038787764 0.34357488
0.081820488 0.038667377 0.34355828
0.079401538 0.038924199 0.34342235
0.076815791 0.038936678 0.34355423
0.074114837 0.03903399 0.34351471
0.07152874 0.038978856 0.34352779
0.069692083 0.03835411 0.34351003
0.062755793 0.038174514 0.34347215
0.060549658 0.038366918 0.34346351
0.058695741 0.038516227 0.34345606
0.055049952 0.039181087 0.34344634
0.053168833 0.039361913 0.34343916
0.050802544 0.039068561 0.34342313
0.048060268 0.039463136 0.34305239
0.045556642 0.039614279 0.34273258
0.043021381 0.039778154 0.34231308
0.040854994 0.039219465 0.34219781
0.037631884 0.039797787 0.34136558
0.035333045 0.039343048 0.34134769
0.033196434 0.03913023 0.3413339
0.11013523 0.034933474 0.34167019
0.10780424 0.035503011 0.34166598
0.10511057 0.035701293 0.34203601
0.10258949 0.035770316 0.3426432
0.10011797 0.035763275 0.34281972
0.097520344 0.035791103 0.34293699
0.094948396 0.036005687 0.34337118
0.092218623 0.035995554 0.34359312
0.089507908 0.036063921 0.34358019
0.086944968 0.03618348 0.34356871
0.08432731 0.036377754 0.34355798
0.081943884 0.036375035 0.34354576
0.079254732 0.036714111 0.34353662
0.076872751 0.036861215 0.34352645
0.073998824 0.036771018 0.34351054
0.071422607 0.037268665 0.34350413
0.069115087 0.037264284 0.34349227
0.063189775 0.03674062 0.3434549
0.061165739 0.036833648 0.34344581
0.059172221 0.037209447 0.34344074
0.054837324 0.037172969 0.34341812
0.053152442 0.036980819 0.34340686
0.050601196 0.037045162 0.3433947
0.048049979 0.037109513 0.34338254
0.045498729 0.037173849 0.34337038
0.042923331 0.037234847 0.34293705
0.040278267 0.037249696 0.34239548
0.03760469 0.037367139 0.34186614
0.035051331 0.037344646 0.34167063
0.032609493 0.037396174 0.34133869
0.02998637 0.03694104 0.34128788
0.02763164 0.036698256 0.34127256
0.1171717 0.031772498 0.34166333
0.11544286 0.032377165 0.34166273
0.11290519 0.032560099 0.34181225
0.11031246 0.032945704 0.34225839
0.10768366 0.033158991 0.3423005
0.1051137 0.033051815 0.34279498
0.10255874 0.033212092 0.34350383
0.099967673 0.033247489 0.34359553
0.097416416 0.03331184 0.34358338
0.095021367 0.033473749 0.34357333
0.092122167 0.034143332 0.34356758
0.090479009 0.034497213 0.34356403
0.083412573 0.034781788 0.34353179
0.082774758 0.034797873 0.34352875
0.062683597 0.035304587 0.34343296
0.052813403 0.035482597 0.34338495
0.050329857 0.035243887 0.34336898
0.047929078 0.034629073 0.34334835
0.045434564 0.034622837 0.34333554
0.042883247 0.03468718 0.34332338
0.040137216 0.034778994 0.3429372
0.0374984 0.034817424 0.34229776
0.034959599 0.034881461 0.34228566
0.03246526 0.034978691 0.34183258
0.029803783 0.03497437 0.3415769
0.027214266 0.034941476 0.34139946
0.024713404 0.034688879 0.34123045
0.02251251 0.034186166 0.34121239
0.11995931 0.029183183 0.34164259
0.11791469 0.029999193 0.34164318
0.11544283 0.030134913 0.34182981
0.11297317 0.030276541 0.34295115
0.11042544 0.030371692 0.34342256
0.10770787 0.030307781 0.34359533
0.10501818 0.030425888 0.34358317
0.10268982 0.03087588 0.34357736
0.099639207 0.031607132 0.34357172
0.097477928 0.031528708 0.34355959
0.095560946 0.03185891 0.34355432
0.046992965 0.033147629 0.34332362
0.045014836 0.032325912 0.34330234
0.042815097 0.031976696 0.34328637
0.040038899 0.032105688 0.343182
0.037392035 0.032170933 0.34295762
0.035021707 0.03233343 0.34265995
0.032273028 0.03225721 0.3426989
0.029863384 0.032256011 0.34227675
0.027085233 0.032440733 0.34216541
0.024467956 0.032495756 0.34178105
0.022045448 0.032402236 0.34130135
0.019665115 0.031895723 0.34116688
0.12238219 0.026401233 0.34161732
0.12049502 0.027247388 0.34170488
0.11795413 0.027422901 0.34219205
0.11538336 0.027603332 0.342498
0.11293331 0.027503055 0.34346288
0.11041903 0.027559396 0.34357199
0.10780489 0.028104004 0.343566
0.10560396 0.028478596 0.34355989
0.044728771 0.029295962 0.3432599
0.042876855 0.029758301 0.34325668
0.039848037 0.029466894 0.34323725
0.037385698 0.0294705 0.3432247
0.034776375 0.029448871 0.34321108
0.032222923 0.029531587 0.34319916
0.029689685 0.029687535 0.34298006
0.027032565 0.029753979 0.34279302
0.024472784 0.029651072 0.34229833
0.021770179 0.029892985 0.3420783
0.019256394 0.029858943 0.34147847
0.016669031 0.02953491 0.34111962
0.014339238 0.029327612 0.34110492
0.12465301 0.024553467 0.3416039
0.12311858 0.024650332 0.34168699
0.12069097 0.025128383 0.34212488
0.11794015 0.024924185 0.34339425
0.11539011 0.024864096 0.34354505
0.1128605 0.024962876 0.34354934
0.11078064 0.025443267 0.34354523
0.039378501 0.027407598 0.34320703
0.038030818 0.027842861 0.34320608
0.034208134 0.027079243 0.34317616
0.032265969 0.027276952 0.34316888
0.029513579 0.027323987 0.34315544
0.027056266 0.02710918 0.34314001
0.024384335 0.027264517 0.34289473
0.021866988 0.027160626 0.34226301
0.019167341 0.027392436 0.3420589
0.016607121 0.027524788 0.34178856
0.014110155 0.027380209 0.34132069
0.011992719 0.026837196 0.34105927
0.12993616 0.021023523 0.34158313
0.1284447 0.021192785 0.34157786
0.12525773 0.021680553 0.34165907
0.12306964 0.022198517 0.34244072
0.12045529 0.022215124 0.34344491
0.1179316 0.022314314 0.34353942
0.11553209 0.022890788 0.34353498
0.11354768 0.023385618 0.34353161
0.026550587 0.025095183 0.34311017
0.024440873 0.024622496 0.34309301
0.021698128 0.024766784 0.34301603
0.01897094 0.024611916 0.34259623
0.016546708 0.024761539 0.34230125
0.01387617 0.024937015 0.34176099
0.01148982 0.024993923 0.34106508
0.0098054446 0.024536002 0.34101695
0.1324819 0.01858953 0.34156322
0.13064784 0.019276578 0.34162769
0.12817517 0.019455303 0.3417336
0.12560833 0.019550484 0.34250331
0.12303501 0.019692827 0.34330788
0.12047561 0.019924555 0.34352008
0.11875241 0.020449068 0.34351847
0.023945034 0.022127923 0.34305674
0.021666002 0.022139836 0.34304523
0.018955272 0.022208195 0.3430323
0.016404022 0.022272546 0.34302014
0.013831127 0.022374343 0.3424271
0.011214819 0.022475664 0.34150925
0.009181276 0.022196408 0.3410334
0.13506769 0.015654247 0.34153673
0.13326141 0.016454961 0.34153837
0.13085002 0.016796019 0.34216607
0.12826061 0.016906109 0.3426809
0.12554629 0.017040644 0.34335631
0.12294561 0.017095033 0.34349442
0.023698751 0.020493124 0.34303343
0.021621827 0.020385947 0.3430213
0.018654671 0.019912798 0.34299973
0.016339835 0.01972143 0.3429853
0.013682541 0.019873712 0.34287524
0.011216767 0.01975717 0.34220031
0.0087196901 0.019896392 0.34177491
0.005811967 0.019674499 0.34120354
0.0034694523 0.019482683 0.34091622
0.001781784 0.019057889 0.34090182
0.13742259 0.012961753 0.34151232
0.13571605 0.013841197 0.34151554
0.13328741 0.014001664 0.34185204
0.13092174 0.014312901 0.34249753
0.12827086 0.014274023 0.34345013
0.12559679 0.014490265 0.34347272
0.12333108 0.01524685 0.34347144
0.015578065 0.017453905 0.34295076
0.013724327 0.017234724 0.3429383
0.011073019 0.017292697 0.34264562
0.0085051358 0.01710986 0.34208399
0.0059240535 0.017276373 0.34185299
0.0032560192 0.017379191 0.3415736
0.0011549965 0.017098803 0.34094036
-0.00068815798 0.016339641 0.34085241
0.13801634 0.011246886 0.34149221
0.13604011 0.011398427 0.34168765
0.1329504 0.01143289 0.34302452
0.13068891 0.011560023 0.34340358
0.12831053 0.01191688 0.34345177
0.12622158 0.012600023 0.3434504
0.015115343 0.015444696 0.34292126
0.01356424 0.014863368 0.3429054
0.011078488 0.014625724 0.34288949
0.0085368156 0.014667723 0.34286338
0.0060354769 0.014618367 0.34213436
0.0032777339 0.014705129 0.34158996
0.00082152337 0.014794219 0.34104183
-0.0017481595 0.014803421 0.34082627
-0.0037641749 0.014388349 0.34081036
0.14031255 0.0082094893 0.34146282
0.1383588 0.0088246278 0.34185562
0.13576505 0.0088317171 0.34266904
0.13319403 0.0088160336 0.3434194
0.13062701 0.0088619888 0.34342229
0.12895502 0.0088285729 0.34341332
0.010226816 0.011971042 0.34284925
0.0084854402 0.011942457 0.34283996
0.0058423206 0.012122452 0.34253407
0.0032855272 0.012118448 0.34193355
0.00062011927 0.012345675 0.34169424
-0.001793094 0.012322281 0.34107459
-0.004302159 0.012395203 0.34078065
0.14272659 0.005311694 0.34143597
0.14095226 0.0061639659 0.34185413
0.13841164 0.0062539242 0.34241152
0.13576016 0.0062422827 0.34265959
0.13296366 0.0061488524 0.34339753
0.13100353 0.0066143274 0.3433938
0.010338809 0.0098064393 0.34282055
0.0083312429 0.0095709153 0.34280708
0.0058700405 0.0094557442 0.34279293
0.0030913986 0.0096044578 0.34265581
0.00071056932 0.0096181706 0.3418957
-0.0020619929 0.0098189451 0.3414717
-0.0046323836 0.0097906552 0.34075588
-0.0071545094 0.0094505027 0.34072623
-0.0087816417 0.0086444728 0.34070697
0.14505537 0.0023421943 0.34140766
0.14318369 0.0031469166 0.34140903
0.14097959 0.0035736822 0.34209818
0.13825521 0.0035990253 0.34254512
0.13568819 0.0037164576 0.34297073
0.13323614 0.0041216016 0.34337151
0.13153392 0.004744187 0.34337127
0.0054894015 0.0070097819 0.34275791
0.0030951872 0.0069730096 0.34274518
0.00037750602 0.0070895888 0.34240401
-0.0020956546 0.007238511 0.34172243
-0.004712671 0.0071726106 0.34099549
-0.0073963478 0.0071876608 0.34069437
-0.0095480829 0.0066828988 0.34067655
0.14554721 0.00062797219 0.34138703
0.14339882 0.00083474442 0.34145132
0.14077413 0.001065895 0.34254682
0.13824412 0.0011689253 0.34320787
0.13613635 0.0016499981 0.34335288
0.0058082081 0.0048837401 0.34273079
0.0028715394 0.0048299283 0.34271505
0.00030703098 0.004510019 0.34268224
-0.0022714436 0.0046265386 0.3421748
-0.0049803555 0.0046167932 0.34148613
-0.0073812604 0.0045960583 0.34073189
-0.0099861845 0.0047252178 0.34064785
-0.011415258 0.0044452846 0.34063673
0.14735468 -0.0025606938 0.34135306
0.14584808 -0.0018090382 0.34135559
0.14328101 -0.0017578863 0.34167662
0.14065638 -0.001828339 0.34304824
0.13893539 -0.0012498163 0.34332797
-0.00052626431 0.0025516078 0.34266692
-0.0023435131 0.0020545535 0.34265086
-0.0048037022 0.0019637272 0.34198716
-0.0074881837 0.0020529926 0.34111288
-0.010032415 0.0021790676 0.34062856
-0.011830144 0.0018365048 0.34059933
0.1477621 -0.0049338751 0.34132311
0.1455994 -0.0041506551 0.34167686
0.14318594 -0.0043447502 0.34277776
0.14088136 -0.0039321147 0.34330162
-0.00053943694 -0.001596164 0.34261075
-0.0025484189 -0.00086445361 0.34261033
-0.0050130486 -0.00058099255 0.34248909
-0.0074029267 -0.00064762682 0.34172016
-0.0098577961 -0.00033785775 0.34126762
-0.012826674 -0.00049170852 0.34060195
-0.014485516 -0.00096164644 0.34054789
0.14991741 -0.0074596852 0.34129992
0.14832678 -0.0071843602 0.34129554
0.14578918 -0.0070085041 0.34199351
0.14318278 -0.0070272461 0.34305722
0.14158322 -0.0059326813 0.3432782
-0.00037832558 -0.0035866983 0.34258458
-0.0024453104 -0.0034263618 0.3425608
-0.0050283894 -0.0033700727 0.34251758
-0.0074439049 -0.0031163953 0.34175235
-0.010134175 -0.0030371882 0.3415423
-0.012564898 -0.0030710138 0.3408168
-0.014671966 -0.0029881932 0.34051955
0.14787525 -0.009560056 0.3412849
0.14591783 -0.009567257 0.34213641
0.14344774 -0.0088216625 0.34309477
-0.00251095 -0.0056319907 0.34254602
-0.0051505119 -0.0057036281 0.34251338
-0.0076451749 -0.0056769736 0.34218591
-0.010100879 -0.0056828856 0.34163171
-0.012799419 -0.0055618882 0.34106943
-0.015215278 -0.005744867 0.34047949
-0.017065778 -0.0066291913 0.34045801
0.15026896 -0.012850598 0.34122881
0.14820474 -0.012307871 0.34199789
0.14587054 -0.01203911 0.34304202
0.14432102 -0.011266623 0.34322003
-0.0054396242 -0.0085411221 0.34249169
-0.0076624006 -0.008390788 0.34248239
-0.010373302 -0.0082433224 0.34213728
-0.012834847 -0.0081812926 0.34143192
-0.015313938 -0.0081296861 0.3406285
-0.017423943 -0.008305341 0.34043354
0.15207776 -0.015792621 0.34119821
0.15058582 -0.01484723 0.34120342
0.14826483 -0.014722452 0.34262732
0.14643531 -0.014431022 0.34318802
0.14304836 -0.014847685 0.34316504
-0.0053379685 -0.011132084 0.34245718
-0.0077265725 -0.010941859 0.34244755
-0.010361537 -0.010847714 0.34236288
-0.012716025 -0.010928344 0.34156907
-0.015424475 -0.010696091 0.34069717
-0.017727755 -0.010693047 0.34039971
0.15260349 -0.017922882 0.3411721
0.15073645 -0.017448671 0.34176639
0.14820448 -0.017472563 0.34260038
0.14597711 -0.017317813 0.34314653
-0.0053436384 -0.012818273 0.34243435
-0.0079191476 -0.013387103 0.34241349
-0.010385744 -0.013398685 0.34240073
-0.01283966 -0.013416801 0.34176305
-0.01570563 -0.013323337 0.34089589
-0.018186003 -0.01327645 0.34036243
0.15293396 -0.020284276 0.34151688
0.15070477 -0.020128481 0.34240812
0.14817435 -0.019929433 0.34303015
0.14641118 -0.019281941 0.34312227
-0.0082074627 -0.01599345 0.34237674
-0.010406196 -0.01597962 0.34236568
-0.013068713 -0.015920993 0.34203649
-0.015793912 -0.015923636 0.34106317
-0.018372171 -0.015944168 0.34035566
-0.020301625 -0.016178388 0.34031236
0.15486948 -0.023104036 0.3411136
0.1532626 -0.022748906 0.34155476
0.15058303 -0.022680841 0.34255096
0.14805369 -0.022720162 0.34308407
0.14584628 -0.023437236 0.34306312
0.14400417 -0.023862464 0.34304801
-0.010474391 -0.018690111 0.34232867
-0.013185062 -0.018621746 0.34231576
-0.015736297 -0.018455533 0.3414956
-0.018316709 -0.018458782 0.34050968
-0.020096764 -0.017832924 0.34029099
0.15497908 -0.025502918 0.34108171
0.15317626 -0.025350461 0.34161419
0.15057603 -0.025380842 0.34244573
0.14798462 -0.025424464 0.34304714
0.14536518 -0.02535053 0.34292367
0.14366293 -0.025318747 0.34302652
-0.01045008 -0.020654324 0.34230223
-0.013465539 -0.021078717 0.34228107
-0.015899166 -0.021164671 0.34159714
-0.018608503 -0.021035932 0.34095317
-0.020880148 -0.02127832 0.34024039
-0.022627704 -0.021718735 0.34022549
0.15509418 -0.027748525 0.3411209
0.15319982 -0.028002257 0.341759
0.15053652 -0.028025022 0.3427195
0.14790839 -0.027931757 0.34301284
0.14569664 -0.027471388 0.34300777
0.14393198 -0.026732402 0.34300882
-0.014541149 -0.023601731 0.34224156
-0.016081154 -0.023807455 0.34182829
-0.018523261 -0.023735281 0.34052876
-0.021016143 -0.022975864 0.34021673
-0.022519648 -0.022448195 0.34021616
0.16620325 -0.03210542 0.34104967
0.15523949 -0.031000555 0.34100866
0.15311876 -0.030656675 0.3416971
0.15044655 -0.030574167 0.34255955
0.14858715 -0.030436318 0.34298244
-0.011780359 -0.026208842 0.34222037
-0.013364971 -0.026564408 0.34220737
-0.016223669 -0.026367066 0.34195864
-0.018651061 -0.02626249 0.34083319
-0.020957261 -0.026662266 0.3403472
-0.022954039 -0.027154243 0.3401503
0.16634129 -0.032898832 0.34103969
0.1551868 -0.032891352 0.34098282
0.15291917 -0.03325782 0.34168518
0.15038201 -0.033117704 0.34288177
0.14870387 -0.032755814 0.34295169
-0.013913639 -0.028303539 0.34218109
-0.016243361 -0.028851829 0.34207603
-0.018548109 -0.028916191 0.34133494
-0.021350592 -0.028716428 0.34097624
-0.023795582 -0.028826995 0.34060296
-0.025289804 -0.028934738 0.34011427
0.15477043 -0.036007136 0.34093854
0.15291224 -0.035727851 0.34199554
0.15037003 -0.035638805 0.34292114
0.14883797 -0.034673702 0.34292644
-0.014697962 -0.032251041 0.34212375
-0.016220666 -0.031468108 0.34212646
-0.018739142 -0.03140055 0.34155211
-0.021363221 -0.031386476 0.34101319
-0.023877539 -0.031213272 0.340525
-0.025356844 -0.03097106 0.3400864
0.15685055 -0.03961084 0.34090036
0.15531757 -0.038516942 0.34118953
0.15278588 -0.038380295 0.34224269
0.15039414 -0.038153641 0.34288725
-0.014740728 -0.033951744 0.3421005
-0.01635474 -0.03404931 0.34209085
-0.018777624 -0.034027264 0.34139657
-0.021432132 -0.034020104 0.34063205
-0.023865543 -0.034015261 0.34005284
-0.025491506 -0.034295086 0.34004074
0.15722084 -0.041471772 0.34087715
0.15534556 -0.041169584 0.34137177
0.15264624 -0.041072633 0.34221935
0.1503543 -0.040884573 0.34285009
-0.014883444 -0.037511256 0.34205163
-0.01635953 -0.036720507 0.34205469
-0.018993586 -0.036728662 0.34174705
-0.021561176 -0.036713053 0.34069082
-0.023931943 -0.036582079 0.34001777
-0.025387593 -0.035962634 0.34001869
0.15708293 -0.042934399 0.34085661
0.15526697 -0.043599732 0.34133026
0.15262075 -0.043671578 0.34227479
0.15077709 -0.043568335 0.34281597
-0.014211789 -0.039670266 0.34202576
-0.016421221 -0.039440155 0.34201759
-0.019001476 -0.039353505 0.34154317
-0.021505103 -0.039242234 0.3404693
-0.023529306 -0.039308611 0.33998296
0.15498623 -0.046232868 0.34095758
0.15255654 -0.046201039 0.34207124
0.15038259 -0.046289194 0.34277713
-0.014598586 -0.041590564 0.34199783
-0.016485386 -0.041991211 0.34198275
-0.019120149 -0.041903235 0.34159556
-0.021648288 -0.04173591 0.340873
-0.024086967 -0.041776955 0.34029818
-0.025915802 -0.042005427 0.33993426
0.15670857 -0.049023204 0.34077233
0.15514207 -0.048621811 0.34108654
0.15250936 -0.04876738 0.342199
0.15021442 -0.048623264 0.34274468
-0.016795233 -0.044161152 0.34195182
-0.019074947 -0.044439286 0.3413865
-0.021652482 -0.044342838 0.34092468
-0.024337299 -0.044275761 0.34069389
-0.02616182 -0.04408275 0.33995491
0.15677324 -0.051550746 0.34073851
0.15512753 -0.051410425 0.34124497
0.1525421 -0.051302504 0.34226456
0.15100017 -0.050203826 0.34272739
-0.017648354 -0.047284793 0.34190527
-0.019154526 -0.046985839 0.34137663
-0.021716326 -0.046881452 0.34089002
-0.024244621 -0.046885032 0.34031373
-0.025974102 -0.04671517 0.33987027
0.1565932 -0.054865763 0.3406927
0.15487045 -0.054070074 0.34085912
0.1523968 -0.053956956 0.3420428
0.15021911 -0.054418132 0.34266633
-0.017475151 -0.049624275 0.34187445
-0.019350909 -0.049557302 0.34170362
-0.021841094 -0.049674891 0.34064642
-0.024219871 -0.049474381 0.33994055
-0.025831126 -0.049406558 0.33983457
0.15647748 -0.056235064 0.3406736
0.15500054 -0.05662664 0.34066078
0.15241778 -0.056503396 0.34163085
0.14973882 -0.056571681 0.34263474
-0.014574617 -0.053247243 0.34184027
-0.016927809 -0.052568622 0.34183741
-0.019288048 -0.05225341 0.3415761
-0.021904118 -0.052183136 0.34057039
-0.024234362 -0.051791858 0.33985493
-0.02577284 -0.051277526 0.33980954
0.15480784 -0.059107974 0.34062621
0.15232486 -0.059171006 0.34138623
0.14974637 -0.059258137 0.34255227
0.14819223 -0.060343709 0.34257588
-0.014103562 -0.055133745 0.34181711
-0.016881958 -0.055093862 0.34174469
-0.019239455 -0.054872483 0.34099194
-0.022026397 -0.054864094 0.3406693
-0.024240188 -0.054720603 0.3398999
-0.025880076 -0.055540435 0.3397513
0.15463716 -0.061760172 0.34058946
0.15234527 -0.061851703 0.34141794
0.14964733 -0.061835498 0.34243074
0.14800183 -0.062057056 0.34255171
-0.014642231 -0.05735784 0.3417843
-0.017024055 -0.05759757 0.34160888
-0.019359067 -0.057422146 0.34083194
-0.022103779 -0.05739893 0.34037355
-0.024502642 -0.057313014 0.33973441
-0.026125334 -0.05735524 0.33972555
0.15440847 -0.064558126 0.34063742
0.15226385 -0.064334542 0.34147027
0.14957559 -0.064287454 0.34198794
0.14732349 -0.064492144 0.34251526
-0.015130065 -0.060323656 0.34174168
-0.01695963 -0.06014771 0.34171933
-0.019445591 -0.060029726 0.34111613
-0.022040151 -0.059961274 0.3402178
-0.024516478 -0.059956308 0.33969858
-0.026029356 -0.059380986 0.33969861
0.15444976 -0.066895247 0.34051904
0.15213127 -0.066931754 0.34098786
0.1495311 -0.066954225 0.34192368
0.14691162 -0.066852644 0.3424812
-0.015279144 -0.06260258 0.34171012
-0.017006785 -0.062718548 0.34169969
-0.019682057 -0.062689409 0.34130278
-0.022146679 -0.062570699 0.34029618
-0.024124011 -0.06224405 0.33966964
0.15379333 -0.069024391 0.34048688
0.15204598 -0.069552474 0.34073475
0.14945894 -0.069563426 0.34150246
0.14695887 -0.069446191 0.34218612
0.14531267 -0.069524527 0.34243697
-0.015319914 -0.065431692 0.34167162
-0.017070979 -0.065269597 0.34166485
-0.019589037 -0.06528312 0.34108227
-0.022190019 -0.065203927 0.34016457
-0.023771122 -0.065132007 0.33963236
0.15157506 -0.07204143 0.34085149
0.14940619 -0.072179049 0.34145233
0.14683947 -0.071860842 0.34224916
0.14529234 -0.072023511 0.34240308
-0.01211898 -0.068425804 0.34164748
-0.014424436 -0.067889035 0.34164292
-0.017154209 -0.067896292 0.34118453
-0.019658238 -0.067792565 0.34074095
-0.022175185 -0.067835093 0.33995628
-0.023998462 -0.067775354 0.33959547
0.1513294 -0.074776843 0.34050286
0.14935897 -0.074719734 0.34121352
0.14677665 -0.074574098 0.3420774
0.1443637 -0.074811071 0.34236053
-0.012241013 -0.069893286 0.341627
-0.014439285 -0.070718192 0.34160459
-0.017152041 -0.070529148 0.34100807
-0.019922264 -0.070505269 0.34033266
-0.022255398 -0.070441701 0.33961308
-0.0239949 -0.070325792 0.33956096
0.15092103 -0.077068746 0.34036338
0.14910737 -0.077285126 0.34052768
0.14664221 -0.077239536 0.34145215
0.14409563 -0.077311411 0.34232533
0.1422936 -0.077522606 0.34231329
-0.012802884 -0.074106485 0.34156719
-0.014599629 -0.07329908 0.34151089
-0.017148964 -0.072974823 0.34061593
-0.019797102 -0.073006488 0.33998379
-0.022369504 -0.073007405 0.339533
-0.023972131 -0.072651006 0.3395296
0.15049306 -0.078788936 0.34033787
0.14893678 -0.079795644 0.34031636
0.14649864 -0.07983382 0.3411161
0.14403369 -0.079885989 0.34211111
0.14176272 -0.079931527 0.34227797
-0.012445882 -0.075980708 0.34154359
-0.014730535 -0.075889096 0.34136647
-0.017202452 -0.075731575 0.34052283
-0.019881509 -0.075635239 0.34005144
-0.022070602 -0.075399078 0.33950216
0.1485182 -0.082247242 0.34028107
0.14643252 -0.082494691 0.34100336
0.14391148 -0.082461372 0.3419579
0.14158297 -0.082286656 0.34224519
-0.012207031 -0.078542233 0.34151015
-0.014395513 -0.078452706 0.3408052
-0.017385967 -0.078402311 0.3402386
-0.019773893 -0.077949375 0.33953205
