# .PCD v0.7 - Point Cloud Data file format
VERSION 0.7
FIELDS x y z
SIZE 4 4 4
TYPE F F F
COUNT 1 1 1
WIDTH 1049
HEIGHT 1
VIEWPOINT 0 0 0 1 0 0 0
POINTS 1049
DATA ascii
-0.10125274 0.040839639 0.34163326
-0.1023328 0.042230047 0.34176457
-0.10336205 0.044507727 0.34199199
-0.11954973 0.061860949 0.3435846
-0.12077704 0.06271819 0.34365609
-0.12426546 0.064898968 0.34383172
-0.12446294 0.065836273 0.34392914
-0.12553746 0.064533003 0.34377095
-0.12616305 0.066351101 0.34395579
-0.21964195 0.050930843 0.3407222
-0.21948059 0.051790774 0.34081736
-0.22202992 0.047960069 0.34036258
-0.220963 0.049586833 0.34055549
-0.21997055 0.05134156 0.3407608
-0.22946727 0.035376042 0.33888438
-0.22889949 0.037001565 0.33906871
-0.09390039 0.020987574 0.34062898
-0.094049737 0.022736114 0.34081444
-0.093655571 -0.0057692369 0.33775681
-0.093516961 -0.0028546685 0.3382735
-0.093628101 9.8327175e-05 0.33897632
-0.094015531 0.0031113159 0.33952916
-0.094166972 0.0061084079 0.34017983
-0.094459392 0.0090174228 0.34040213
-0.094750464 0.011973052 0.34059653
-0.094964869 0.014939045 0.34085882
-0.095116906 0.01794913 0.34101146
-0.095415197 0.020896256 0.34113142
-0.095769018 0.023847975 0.3413094
-0.096242718 0.026763458 0.34130746
-0.096856311 0.029628061 0.34150812
-0.097476348 0.032912116 0.3418507
-0.097691536 0.035467383 0.34212175
-0.098249406 0.037356403 0.34231535
-0.096050106 -0.016992442 0.33734807
-0.095481962 -0.014975472 0.33727726
-0.095672473 -0.011950974 0.33777523
-0.095878936 -0.0090070348 0.33830187
-0.096106388 -0.0061066598 0.33882341
-0.09607061 -0.0032743844 0.33946592
-0.095740408 -0.0003629108 0.34007236
-0.095826946 0.0027717014 0.34065005
-0.096078515 0.00571677 0.34096241
-0.096330062 0.0086618355 0.3412748
-0.09658163 0.011606896 0.34158716
-0.097007222 0.01483597 0.34190476
-0.097286664 0.017764352 0.34206954
-0.097676024 0.020713944 0.34237272
-0.09806595 0.023720354 0.34246686
-0.098694719 0.026710737 0.3425616
-0.09915825 0.029615577 0.34255245
-0.09953291 0.032601483 0.34237206
-0.099816598 0.035538018 0.34220406
-0.10020779 0.038331229 0.34238723
-0.10116037 0.040343989 0.34258744
-0.098982036 -0.023385204 0.33677909
-0.098921761 -0.021159161 0.33701941
-0.098455533 -0.018191077 0.33743644
-0.098213345 -0.01544769 0.33829191
-0.097791776 -0.012547723 0.33897007
-0.097502396 -0.0093516298 0.33931854
-0.097712167 -0.00657837 0.33961314
-0.10117929 0.029822726 0.34346786
-0.10194398 0.032381296 0.34346455
-0.10261154 0.035256978 0.3433345
-0.10286894 0.038193695 0.34335971
-0.10340861 0.041000538 0.34311804
-0.10434728 0.043729234 0.34300092
-0.1049063 0.046197366 0.34315354
-0.10068907 -0.027111556 0.33552915
-0.10042298 -0.024474159 0.33642042
-0.10075338 -0.021645267 0.3373535
-0.10029999 -0.018938757 0.33817786
-0.099898361 -0.016768944 0.33848077
-0.10436609 0.035827097 0.34405962
-0.10527057 0.038235493 0.34430328
-0.10598081 0.040895693 0.34428689
-0.10638034 0.043969989 0.34395149
-0.10674553 0.046997041 0.34378588
-0.10784461 0.049358547 0.3436451
-0.10312174 -0.03045316 0.33554909
-0.10286599 -0.028386969 0.33588853
-0.10272043 -0.024003848 0.33765543
-0.10240211 -0.02289287 0.33778024
-0.10781038 0.041820046 0.34464583
-0.10885608 0.043923419 0.34483695
-0.10964718 0.046577033 0.34450915
-0.10983982 0.049755696 0.34420064
-0.10586751 -0.033850204 0.33589715
-0.10558553 -0.031305999 0.33655068
-0.10482868 -0.029163655 0.33706522
-0.11159845 0.046922091 0.34513044
-0.11255901 0.049636483 0.34501079
-0.11323207 0.052376006 0.34470052
-0.10855617 -0.037160836 0.33562297
-0.10862523 -0.034465995 0.33643118
-0.10787538 -0.032480299 0.33665729
-0.11522743 0.052472845 0.34539515
-0.11602044 0.055457663 0.34410775
-0.11670761 0.058121298 0.34423631
-0.11127006 -0.040340684 0.33528224
-0.11105071 -0.037676983 0.33602744
-0.11043693 -0.035657972 0.33627251
-0.1183054 0.056241725 0.34400743
-0.11953847 0.057949673 0.34494612
-0.12003839 0.060607534 0.34457883
-0.12123139 0.062859908 0.34466958
-0.11398814 -0.043579131 0.33492148
-0.11391427 -0.04101925 0.33563751
-0.12144136 0.058513638 0.34520474
-0.12263389 0.060755819 0.34524173
-0.12321821 0.063300729 0.34488848
-0.12388545 0.065334767 0.34489089
-0.11696647 -0.0465976 0.33405688
-0.11639683 -0.044043723 0.33511442
-0.12539724 0.060633518 0.34633934
-0.12489053 0.063134737 0.34495181
-0.12763841 0.066817947 0.34498709
-0.1189891 -0.047642294 0.33383411
-0.1294376 0.066929206 0.34496877
-0.12986663 0.06833519 0.34511271
-0.12238939 -0.050490487 0.33416346
-0.13230667 0.066822581 0.34564045
-0.13274872 0.06866914 0.34565553
-0.12516658 -0.053470783 0.33354586
-0.12513214 -0.051399499 0.3343325
-0.13527629 0.066152848 0.3467986
-0.13553713 0.06841179 0.34646887
-0.12803745 -0.053924389 0.33394787
-0.12749152 -0.052062258 0.33422148
-0.13834777 0.066088311 0.34673989
-0.13852967 0.068048894 0.34694758
-0.13082294 -0.056947358 0.33324784
-0.13039359 -0.054938547 0.33386335
-0.1410179 0.068545274 0.34683001
-0.13374734 -0.057693996 0.33351058
-0.14321043 0.069223091 0.34598899
-0.1359188 -0.058526028 0.33338454
-0.14769062 0.071149506 0.34608325
-0.1501023 0.071519263 0.34611967
-0.15385018 0.073765472 0.34568781
-0.14548194 -0.061837748 0.33286729
-0.15735829 0.073842265 0.34564358
-0.14859755 -0.062107936 0.33278573
-0.16016825 0.072653927 0.34649965
-0.15149845 -0.064316601 0.33249938
-0.1513913 -0.0624936 0.33269715
-0.16295846 0.0728103 0.34672624
-0.16322212 0.075173773 0.34577161
-0.15430696 -0.064808168 0.33239919
-0.154522 -0.062745638 0.33261728
-0.16596992 0.07248719 0.34653649
-0.1662343 0.074899189 0.34573194
-0.15730274 -0.065237477 0.33226383
-0.15754238 -0.063041143 0.33253461
-0.16919759 0.072319239 0.34660003
-0.16928081 0.074690208 0.34579369
-0.16037235 -0.062753856 0.33251777
-0.17172104 0.072118804 0.34620786
-0.17226061 0.074440874 0.34543425
-0.16327918 -0.065395281 0.33199763
-0.16323723 -0.063321747 0.33240843
-0.17485715 0.072669297 0.34496373
-0.17536224 0.074211195 0.34505385
-0.16675071 -0.063781746 0.33229974
-0.1783192 0.072042853 0.3454091
-0.17815807 0.073897973 0.34501311
-0.16961239 -0.063620582 0.33226883
-0.18077508 0.071906857 0.34542072
-0.18120241 0.073625363 0.34493145
-0.1726048 -0.064015552 0.33217591
-0.18481064 0.068016693 0.34616387
-0.18433267 0.070729449 0.34527048
-0.18409733 0.073531531 0.34476686
-0.17564015 -0.06387952 0.33211774
-0.17689715 -0.061877295 0.33233342
-0.18604612 0.068025745 0.34609106
-0.1869372 0.070211805 0.34509024
-0.18685886 0.072930142 0.34464583
-0.17857368 -0.063992202 0.33201921
-0.17875569 -0.061868019 0.33230308
-0.19096823 0.067892626 0.34504086
-0.19003588 0.070103094 0.34488472
-0.18140268 -0.063754559 0.3317247
-0.18189082 -0.061884999 0.33224839
-0.19357261 0.064832263 0.34567386
-0.1928841 0.06687969 0.34552518
-0.18446022 -0.063681006 0.3319692
-0.18475993 -0.061578967 0.33223292
-0.18544871 -0.059952185 0.33239621
-0.18707518 -0.063603334 0.33197629
-0.187667 -0.061753355 0.33216518
-0.18891436 -0.059818573 0.33235213
-0.19049771 -0.061380856 0.33200908
-0.19101095 -0.059219189 0.33237004
-0.19208115 -0.05736525 0.33256248
-0.19352011 -0.059011977 0.33178303
-0.1943028 -0.056755587 0.33259058
-0.19728355 -0.056529872 0.3322826
-0.19830716 -0.054299824 0.33278707
-0.19995528 -0.056258738 0.33171952
-0.2006231 -0.053843319 0.33260152
-0.20167652 -0.051760837 0.33300319
-0.20336086 -0.053717345 0.33197129
-0.20401163 -0.051222537 0.33295235
-0.20513946 -0.049123678 0.33322832
-0.21316007 0.053093035 0.3440313
-0.20659551 -0.05114923 0.33223826
-0.20721021 -0.048429292 0.33313465
-0.20805687 -0.045699403 0.33354726
-0.21598604 0.050412748 0.34362265
-0.21568619 0.052913904 0.34322989
-0.20974387 -0.048451837 0.33228534
-0.21017796 -0.045586497 0.33306801
-0.21078852 -0.043699488 0.33371621
-0.21930604 0.044909276 0.34309825
-0.21872492 0.047143541 0.34304449
-0.21834059 0.049672574 0.34263575
-0.21818283 0.052480835 0.3421897
-0.21298522 -0.045624699 0.3325327
-0.21364863 -0.042956874 0.33344495
-0.21464881 -0.040246986 0.33402228
-0.21518585 -0.038239207 0.33422908
-0.22140858 0.040839735 0.34262529
-0.22100338 0.04355279 0.34245041
-0.22097534 0.046391953 0.34188303
-0.22066835 0.048846833 0.34165731
-0.21520993 -0.044967465 0.3324995
-0.21627353 -0.042777091 0.33271691
-0.21654892 -0.040044203 0.33321604
-0.21640618 -0.037917193 0.33424309
-0.22443597 0.035142627 0.34196183
-0.2238504 0.037663084 0.34217772
-0.22359103 0.040293504 0.34204641
-0.22368729 0.043258589 0.34144807
-0.22361957 0.046011269 0.34114569
-0.22303502 0.047992937 0.34135506
-0.21931079 -0.039930698 0.33251229
-0.22022673 -0.037176929 0.33337802
-0.22047722 -0.03456033 0.33422872
-0.22104193 -0.031797785 0.33477077
-0.22162086 -0.029468346 0.33506346
-0.22655755 0.031355508 0.34144345
-0.22618118 0.033990167 0.34132951
-0.22620536 0.03707603 0.34119964
-0.22633655 0.040039141 0.3408041
-0.22550592 0.042134896 0.3408384
-0.22163698 -0.037130661 0.33323359
-0.22277641 -0.0339728 0.33355388
-0.22337398 -0.031688526 0.33389306
-0.22368875 -0.028840419 0.33466625
-0.22444898 -0.026231114 0.33534551
-0.22541519 -0.023217633 0.33567145
-0.22909664 0.022282075 0.34050071
-0.22898141 0.024836026 0.34073612
-0.22884332 0.027818639 0.34076807
-0.22873822 0.030727904 0.34066594
-0.22903715 0.03383382 0.34020594
-0.2284376 0.036722366 0.34008902
-0.22820848 0.039385673 0.34034258
-0.22628272 -0.028790098 0.33386776
-0.22683388 -0.025903136 0.33440861
-0.227089 -0.022865579 0.33511943
-0.22752145 -0.019992787 0.33556041
-0.22812518 -0.017203763 0.33609048
-0.22869869 -0.014317759 0.33657286
-0.22930068 -0.011477713 0.33686802
-0.22967188 -0.0082953852 0.33720386
-0.22981024 -0.006675601 0.33737567
-0.23111492 0.010344404 0.33918336
-0.23108621 0.012751251 0.33944258
-0.23118809 0.015795749 0.33966032
-0.23109755 0.018692173 0.33984965
-0.23096213 0.021609835 0.33995897
-0.23109029 0.024579145 0.3398982
-0.23141997 0.027574364 0.33952954
-0.2312109 0.030413199 0.33948687
-0.23095663 0.032948088 0.3396042
-0.23012613 -0.020027947 0.33467749
-0.23060268 -0.017132122 0.33496448
-0.230905 -0.014307535 0.33565393
-0.23117483 -0.011405128 0.33639812
-0.2314783 -0.0084040193 0.33687553
-0.23178107 -0.0054622693 0.33721045
-0.23210615 -0.0024919175 0.33751237
-0.23232114 0.0004623495 0.33774725
-0.23242845 0.0035483791 0.3380217
-0.23265162 0.0065527144 0.33833075
-0.23287541 0.0094888434 0.33859217
-0.23310038 0.012572724 0.33860379
-0.23328996 0.015507386 0.3386007
-0.23350009 0.018459573 0.33884853
-0.23324752 0.021271855 0.33924299
-0.097672611 -0.005136285 0.34077474
-0.097515807 -0.0029424792 0.34101319
-0.097222939 -0.00025353185 0.34140465
-0.097218916 0.0025587808 0.34195349
-0.09747079 0.005505458 0.3422994
-0.097724155 0.0084717162 0.34261405
-0.097977497 0.011437982 0.34292865
-0.098385617 0.014360515 0.3431344
-0.098834716 0.017411206 0.34334397
-0.099213772 0.02033041 0.34348652
-0.099579148 0.023246162 0.34379372
-0.10005788 0.02602848 0.34408477
-0.10050479 0.028021164 0.34429148
-0.099542409 -0.014831352 0.33970094
-0.099111356 -0.012239997 0.34006426
-0.09889853 -0.0095230779 0.34060735
-0.099214248 -0.0066588083 0.34130636
-0.099432379 -0.0037802081 0.34205508
-0.099484317 -0.00089433091 0.34266344
-0.099604987 0.0021758927 0.34299341
-0.099948496 0.0051274556 0.34347951
-0.10007804 0.0080907531 0.34402895
-0.10014483 0.011114906 0.34430578
-0.10041378 0.014108444 0.34443203
-0.10082486 0.017155711 0.34473428
-0.10139381 0.020045038 0.34477532
-0.10171592 0.023016833 0.34480309
-0.10197823 0.026004743 0.34498402
-0.10235144 0.028879624 0.3447808
-0.1032674 0.031752568 0.34468976
-0.10386278 0.034153502 0.34489411
-0.10211129 -0.021201495 0.33897287
-0.10164657 -0.01867101 0.3393988
-0.10140584 -0.015912816 0.34041041
-0.10157937 -0.013043984 0.34133488
-0.10132273 -0.010145135 0.3418557
-0.10118642 -0.0072164293 0.34245083
-0.10122811 -0.0043056025 0.34281591
-0.10121939 -0.0023547146 0.34302577
-0.10327891 0.020392794 0.34543645
-0.10363182 0.023051638 0.34571639
-0.10435669 0.026078049 0.34602961
-0.10493924 0.028765414 0.34606811
-0.10540096 0.031608578 0.34589902
-0.10576934 0.034610659 0.34540504
-0.10638175 0.037376691 0.34530333
-0.10731341 0.04017384 0.34548309
-0.10481986 -0.026746094 0.33833113
-0.10429195 -0.02458261 0.33874026
-0.10388894 -0.0220531 0.3397814
-0.10356525 -0.019246668 0.3406674
-0.10343741 -0.016500875 0.34141478
-0.10333113 -0.014105746 0.3417269
-0.10721261 0.031905886 0.3466078
-0.10833597 0.03472849 0.34680369
-0.10893723 0.037283961 0.34660682
-0.10913992 0.040380761 0.34601495
-0.10985424 0.042987395 0.34577477
-0.11095208 0.0450457 0.34594551
-0.10744242 -0.029963616 0.33894694
-0.10662347 -0.027784731 0.33904022
-0.10647921 -0.02527098 0.33997545
-0.10599323 -0.023100227 0.34071511
-0.1105613 0.035206284 0.34690616
-0.11111953 0.037233017 0.34709021
-0.11177173 0.040153004 0.34710547
-0.11243808 0.043038189 0.34698966
-0.11279295 0.045935985 0.34655595
-0.11366682 0.048651554 0.34639671
-0.11442186 0.050572515 0.34648117
-0.11004525 -0.034201007 0.33744165
-0.10947147 -0.030746441 0.33931297
-0.10902783 -0.028710529 0.33991912
-0.1084203 -0.026206248 0.34034029
-0.11478356 0.043266922 0.34770161
-0.1155784 0.045793634 0.34758836
-0.11592499 0.048736338 0.34721237
-0.11632542 0.051309109 0.34684902
-0.11226197 -0.037183914 0.33731407
-0.11183896 -0.034600738 0.33838367
-0.11166444 -0.032049067 0.33957517
-0.11097609 -0.029972274 0.33989233
-0.11767762 0.046205033 0.34796858
-0.1181201 0.048768472 0.34808695
-0.11857507 0.051508214 0.3475776
-0.12016536 0.054360628 0.34712687
-0.11483866 -0.040193617 0.33684501
-0.11450502 -0.037804097 0.33796719
-0.1145657 -0.035386194 0.33915988
-0.12238151 0.054938037 0.34785315
-0.12290645 0.056236584 0.34789994
-0.11759593 -0.04280569 0.33680844
-0.11724928 -0.041005939 0.33747789
-0.11722052 -0.038441569 0.33868381
-0.11671239 -0.036396176 0.33910504
-0.12573557 0.052101623 0.34846663
-0.12563182 0.053876575 0.34865937
-0.12566672 0.056612086 0.34834448
-0.12659453 0.060013313 0.34729087
-0.12055677 -0.043674476 0.33809784
-0.12004951 -0.041722942 0.33830422
-0.11923261 -0.039692324 0.33870822
-0.12795573 0.053942967 0.34828097
-0.12844449 0.056813799 0.34789997
-0.12887253 0.059759341 0.34742287
-0.12981886 0.061672181 0.34741485
-0.12384853 -0.049636472 0.33554956
-0.12404931 -0.047234219 0.33647504
-0.12297957 -0.044124346 0.33814862
-0.12249458 -0.042874075 0.3383112
-0.13030288 0.057754163 0.34799138
-0.131721 0.059875984 0.34773228
-0.13242528 0.062198956 0.34749845
-0.13358422 0.064342231 0.3476384
-0.12564215 -0.050077941 0.33560914
-0.12554164 -0.047782123 0.33655006
-0.1249972 -0.045732263 0.33695582
-0.13371029 0.062323682 0.34767073
-0.13420475 0.065128006 0.3477124
-0.12952372 -0.053385261 0.33505088
-0.12757199 -0.050433222 0.33577168
-0.12756386 -0.048616186 0.33660254
-0.13897468 0.061530411 0.34925711
-0.13964745 0.065838434 0.34769702
-0.13216189 -0.055839445 0.33474258
-0.1312665 -0.054090582 0.3349458
-0.14043437 0.062016379 0.34917542
-0.14024365 0.065377973 0.34783864
-0.14050946 0.067129411 0.34782127
-0.13418147 -0.056485023 0.3346391
-0.13399924 -0.054988611 0.33512241
-0.13766079 -0.059507407 0.33425558
-0.13698728 -0.057401888 0.33453664
-0.13700555 -0.055256408 0.33555657
-0.1481605 0.066413268 0.34908229
-0.13839966 -0.059436005 0.33425078
-0.13890254 -0.057792809 0.33444345
-0.13882436 -0.055915304 0.33534062
-0.15062419 0.067041345 0.34868577
-0.15146898 0.068720959 0.3488135
-0.14439711 -0.057136577 0.33640867
-0.14415766 -0.05639378 0.33649257
-0.15347481 0.066698857 0.34911299
-0.15392302 0.068884373 0.34837055
-0.14692502 -0.06055893 0.3340534
-0.14621602 -0.058104545 0.33580151
-0.14576457 -0.056624852 0.33644071
-0.15643394 0.066762835 0.34920198
-0.15693855 0.0691742 0.3483656
-0.14865793 -0.06071832 0.33417779
-0.14880709 -0.058666639 0.33556852
-0.14959456 -0.057044167 0.33633101
-0.15985948 0.069517881 0.34778705
-0.16053243 0.071164668 0.34791747
-0.15195152 -0.061258174 0.33395424
-0.15191145 -0.058965378 0.33561811
-0.15171674 -0.057165515 0.33628219
-0.16296603 0.069290839 0.34816688
-0.16320232 0.071371354 0.34789476
-0.15467466 -0.06137076 0.33391428
-0.15478495 -0.059314631 0.3353146
-0.15457359 -0.057676781 0.33617905
-0.1660462 0.066707633 0.34935722
-0.16582528 0.068801172 0.34860396
-0.1660765 0.071015261 0.34780797
-0.15767375 -0.061855003 0.33366591
-0.1569922 -0.060526133 0.33382016
-0.16861913 0.066657029 0.3493084
-0.16878177 0.06852302 0.34869513
-0.16908371 0.070833303 0.34780481
-0.15940534 -0.061520703 0.33367255
-0.17149678 0.066513002 0.34924439
-0.17174894 0.068184808 0.34876469
-0.17174448 0.070343964 0.3479892
-0.16456939 -0.062406264 0.33356211
-0.16465738 -0.05989328 0.3355245
-0.16513406 -0.058449563 0.33591792
-0.1751959 0.066121399 0.34913993
-0.17478912 0.067823142 0.34880149
-0.17365207 0.069603935 0.34853444
-0.16651288 -0.062488988 0.33374915
-0.16689347 -0.060200997 0.33519715
-0.16714343 -0.058565512 0.33587161
-0.17696503 0.065701142 0.34906495
-0.17756832 0.067417465 0.34869555
-0.16996843 -0.06237641 0.33357736
-0.16987181 -0.06045346 0.33509332
-0.17004791 -0.058692705 0.33580899
-0.18113656 0.067741625 0.34745356
-0.17264329 -0.062712513 0.33332124
-0.17273462 -0.060611904 0.3342827
-0.17275581 -0.058878951 0.33574328
-0.18351647 0.067832656 0.34717184
-0.18389182 0.068977624 0.34728858
-0.17504552 -0.062664859 0.33328584
-0.17568496 -0.060794421 0.33397433
-0.17592724 -0.058869347 0.33569098
-0.18699157 0.064275898 0.34861705
-0.18728827 0.065836929 0.34806722
-0.17934333 -0.06123139 0.33336753
-0.180121 -0.057931516 0.33572096
-0.18892494 0.064289734 0.34786561
-0.18890075 0.065482385 0.34783426
-0.18163057 -0.060618475 0.33347738
-0.18203941 -0.058460034 0.33490807
-0.18248299 -0.056552127 0.33582953
-0.1917076 0.061759118 0.34839261
-0.19256178 0.063535675 0.3475633
-0.18395117 -0.06033852 0.33338583
-0.18481547 -0.058795162 0.33396146
-0.18441881 -0.056406897 0.33581248
-0.19461249 0.06438572 0.34661418
-0.18752804 -0.060417458 0.33331704
-0.1880362 -0.058929272 0.33346862
-0.18917906 -0.056257091 0.33408219
-0.19027153 -0.058129545 0.33351672
-0.19114846 -0.055996727 0.33392325
-0.19166414 -0.054367043 0.33440068
-0.19370557 -0.055714272 0.33371845
-0.19367503 -0.05445838 0.33385402
-0.19851454 -0.050545119 0.33546138
-0.19898775 -0.048665203 0.33639905
-0.19964841 -0.052856404 0.33392549
-0.2006062 -0.050785154 0.33461276
-0.20106068 -0.048071742 0.33594859
-0.20183198 -0.045957301 0.3366423
-0.2095959 0.051047903 0.34593365
-0.20956522 0.052890256 0.34609979
-0.20307064 -0.050303735 0.33414221
-0.2038198 -0.048186824 0.33476672
-0.20441993 -0.046033714 0.33547968
-0.21264735 0.051303107 0.34490374
-0.21200553 0.052322689 0.34511358
-0.20597859 -0.047751609 0.33436754
-0.20684138 -0.0453186 0.33461475
-0.20732252 -0.043290831 0.33482447
-0.20911631 -0.039392479 0.33722511
-0.21576512 0.041228555 0.34577996
-0.21581879 0.043536399 0.34600386
-0.21539307 0.04660067 0.34545854
-0.21515717 0.049710147 0.34469029
-0.21427962 0.051677264 0.34491643
-0.20884019 -0.044291299 0.33469135
-0.21055466 -0.042619161 0.33506578
-0.21098886 -0.039842688 0.33680308
-0.21176058 -0.037394833 0.3373954
-0.21259047 -0.035361893 0.33759984
-0.21815279 0.037625503 0.34535244
-0.21779183 0.040357102 0.34535956
-0.21782544 0.043334477 0.3450388
-0.21770555 0.04621543 0.34459352
-0.21697047 0.048552871 0.3445352
-0.21264172 -0.04225032 0.33484662
-0.21348181 -0.039907891 0.33569902
-0.21411309 -0.037120603 0.33678499
-0.21463731 -0.034397211 0.33756012
-0.21559489 -0.031916104 0.33791962
-0.2210719 0.032018211 0.34470037
-0.22054997 0.034264032 0.3447614
-0.22036657 0.037142955 0.34444553
-0.22022451 0.040054299 0.34393078
-0.21980986 0.042898972 0.34394512
-0.21956134 0.044959739 0.34410524
-0.21663621 -0.036739666 0.3354724
-0.21724887 -0.034291949 0.33621889
-0.21756849 -0.031435665 0.33738941
-0.21831119 -0.028794557 0.33803037
-0.21902971 -0.026132118 0.3384836
-0.2196151 -0.024043553 0.33869815
-0.22364314 0.025393385 0.34394482
-0.2233893 0.027916186 0.34422046
-0.22313596 0.030980568 0.34421578
-0.22314633 0.033868916 0.34366357
-0.22286947 0.03667758 0.3433401
-0.22211999 0.038984135 0.34341973
-0.21881385 -0.036320858 0.33538002
-0.21928018 -0.034230702 0.33559683
-0.21980786 -0.031487789 0.33618045
-0.2206555 -0.028694171 0.33681318
-0.22105616 -0.025954507 0.33778092
-0.22151808 -0.023101661 0.33852899
-0.22219871 -0.020326395 0.33900526
-0.22277448 -0.017957125 0.3392992
-0.22591811 0.019015409 0.34322083
-0.22566368 0.021891747 0.34349254
-0.22544254 0.024641018 0.34346876
-0.22566488 0.027728286 0.34327793
-0.22551493 0.030549183 0.34292069
-0.22500005 0.033332411 0.34276357
-0.22263151 -0.027891107 0.3362219
-0.22349136 -0.025530446 0.33665225
-0.22419932 -0.022883289 0.33717331
-0.22437651 -0.020027008 0.33787984
-0.22481474 -0.017227795 0.33873215
-0.22539203 -0.014347893 0.33936194
-0.22591776 -0.011401003 0.33971357
-0.22628678 -0.0085512968 0.34017763
-0.22667238 -0.0053733801 0.34058633
-0.22691971 -0.0023554042 0.34090662
-0.22717519 0.00063591683 0.34122387
-0.22730169 0.0037964522 0.34156156
-0.22744986 0.0067173671 0.34176716
-0.22761074 0.0096246991 0.3420392
-0.22773653 0.01266239 0.34225586
-0.22767155 0.015696734 0.34243238
-0.22788133 0.018575385 0.34230351
-0.22783229 0.021482702 0.34227315
-0.22771552 0.024521086 0.34215066
-0.22760552 0.027220305 0.34221342
-0.22741699 0.029303823 0.34228978
-0.22604421 -0.02186266 0.33681241
-0.2263785 -0.019703943 0.33703882
-0.22688389 -0.016829301 0.3374511
-0.22749215 -0.014113794 0.33791494
-0.22810578 -0.011222293 0.33836862
-0.22834498 -0.0083373589 0.33894315
-0.22867885 -0.0054284306 0.33949015
-0.2289186 -0.0024529304 0.33975679
-0.22915667 0.00053227902 0.34005114
-0.22937483 0.0035154875 0.34029078
-0.22960338 0.0064775674 0.34041753
-0.22983468 0.0094587095 0.34067008
-0.22987655 0.012435659 0.34085575
-0.22986746 0.015378205 0.34102473
-0.2298238 0.018234314 0.34111664
-0.22972843 0.02039212 0.34129277
-0.23058665 -0.0050313557 0.33854523
-0.23085135 -0.0024338597 0.33881998
-0.23110421 0.00052662496 0.33913398
-0.23128641 0.0032444976 0.33942309
-0.23146114 0.0064598937 0.33976585
-0.23163815 0.0085322354 0.33998561
-0.10101721 -0.00059682876 0.34422404
-0.10115835 0.0019265725 0.34449297
-0.10155208 0.0050085168 0.34481761
-0.10170866 0.0080037974 0.345137
-0.10176702 0.01080765 0.3454375
-0.10199457 0.013753053 0.3457503
-0.10231331 0.016566578 0.34604734
-0.1027898 0.018607777 0.3462587
-0.1029859 -0.012066731 0.34295782
-0.1027455 -0.0099539896 0.34318906
-0.102594 -0.0070900843 0.34351486
-0.10270852 -0.0041148597 0.34397194
-0.10275592 -0.001241846 0.34451059
-0.10300909 0.0016740125 0.34507826
-0.10328343 0.0047033168 0.34527346
-0.10357404 0.0076513011 0.34560752
-0.10374741 0.010595017 0.34610239
-0.10401045 0.013618383 0.34658805
-0.10427791 0.01664217 0.34673637
-0.10459697 0.019541807 0.34669629
-0.10504654 0.022485085 0.34694961
-0.10555798 0.025244992 0.34701532
-0.10626511 0.027969189 0.3472065
-0.10518229 -0.021105181 0.34194916
-0.10503051 -0.019139592 0.34216306
-0.10490732 -0.01631818 0.342612
-0.10475188 -0.013395558 0.34317574
-0.10487784 -0.010448184 0.34373072
-0.1050889 -0.0074651437 0.34453353
-0.10538448 -0.0045530787 0.3453151
-0.10545795 -0.0017377385 0.3458564
-0.10536621 0.0013007327 0.34635136
-0.10555615 0.0044131461 0.34653288
-0.10571998 0.0073712943 0.34697714
-0.10589159 0.010355979 0.34733111
-0.10633989 0.013250984 0.34763464
-0.10668008 0.016265698 0.34781331
-0.10713636 0.019288652 0.347913
-0.10759408 0.022183865 0.34820503
-0.10789592 0.025192834 0.34813347
-0.10818459 0.028260164 0.34787288
-0.10859347 0.031246334 0.34779716
-0.10912824 0.033673782 0.34777153
-0.10782482 -0.024326429 0.34155831
-0.10706647 -0.022173692 0.3418383
-0.10716403 -0.019584291 0.34258717
-0.10740647 -0.016831722 0.34365731
-0.10749216 -0.013932389 0.34442404
-0.10695013 -0.010924985 0.34502554
-0.10694765 -0.0076533072 0.3453773
-0.10713095 -0.0050918143 0.34564957
-0.10941548 0.023038898 0.34863517
-0.11008082 0.025215182 0.34885791
-0.11089209 0.027950697 0.34895185
-0.11146168 0.03097124 0.34891748
-0.11179359 0.033916533 0.34852764
-0.11250611 0.036729973 0.34850293
-0.11314375 0.039364576 0.34843057
-0.11024225 -0.028074596 0.34119204
-0.10971954 -0.02559955 0.34189236
-0.10987663 -0.022829402 0.34290868
-0.10962658 -0.020085752 0.34382787
-0.10933948 -0.017322324 0.34429756
-0.10922642 -0.015183418 0.34452939
-0.11331095 0.03143505 0.34947211
-0.11412156 0.033902768 0.34970498
-0.11499195 0.036597244 0.34972531
-0.11518621 0.039500408 0.34917459
-0.11576091 0.042311434 0.3487893
-0.11676225 0.044515021 0.34880826
-0.1128037 -0.031450596 0.34080669
-0.11231302 -0.028980471 0.34167314
-0.11263712 -0.026099946 0.34280473
-0.11250299 -0.023802668 0.34354755
-0.11699022 0.037082046 0.35001713
-0.11699101 0.039236855 0.34974584
-0.1171536 0.04236282 0.34927443
-0.11726315 0.044587146 0.34880754
-0.11543174 -0.03444152 0.34042895
-0.11505394 -0.032308567 0.34155399
-0.11513466 -0.029477041 0.34256142
-0.11483328 -0.02680419 0.34312972
-0.11847205 -0.037901994 0.34001374
-0.11793728 -0.035423119 0.34116054
-0.11745666 -0.032831464 0.34231687
-0.11699972 -0.030662481 0.34273431
-0.1212212 -0.040912353 0.33971715
-0.12064053 -0.038695022 0.3408033
-0.12034572 -0.036287665 0.34196132
-0.12328117 -0.04163469 0.33997589
-0.12346334 -0.039175302 0.3414892
-0.12241466 -0.03722829 0.34193718
-0.12656021 -0.041971911 0.34135732
-0.12542948 -0.04019247 0.3415677
-0.12832111 -0.04297822 0.34121948
-0.1382466 0.058388095 0.3509433
-0.13853256 0.060542155 0.35016418
-0.13231346 -0.048358977 0.33968171
-0.13257176 -0.046327956 0.34065875
-0.14103627 0.061012827 0.35017252
-0.13541767 -0.050738495 0.33925968
-0.1346285 -0.049009413 0.33969888
-0.13421635 -0.046842843 0.34070462
-0.1378019 -0.051225785 0.33932719
-0.13769034 -0.049948283 0.34001258
-0.14069758 -0.051717043 0.33990669
-0.14053182 -0.050438061 0.34021166
-0.14369725 -0.054948114 0.33766162
-0.14329058 -0.052768953 0.33882338
-0.14232399 -0.050804757 0.34014204
-0.14640218 -0.055473249 0.33774811
-0.14649983 -0.052967645 0.33946607
-0.1489276 -0.055863243 0.33790225
-0.1492101 -0.053606488 0.33949602
-0.15205984 -0.053853057 0.33965021
-0.16369238 0.064250804 0.35114458
-0.15607175 -0.058292761 0.33709347
-0.15597984 -0.056407709 0.33830354
-0.15551439 -0.05432874 0.33954078
-0.16534932 0.062644213 0.35138723
-0.16584209 0.065086037 0.35064223
-0.1565799 -0.058284316 0.33708581
-0.15784755 -0.056316204 0.33840027
-0.15806273 -0.054720219 0.33945578
-0.16835216 0.062446732 0.3513467
-0.1685558 0.065157443 0.350629
-0.16969526 0.066746578 0.3503058
-0.16152574 -0.056602664 0.33874017
-0.16151592 -0.054655328 0.33940437
-0.17147247 0.062329777 0.35158411
-0.17161217 0.06494645 0.35067588
-0.17181148 0.066571593 0.35025132
-0.16380017 -0.058941893 0.33689341
-0.16400631 -0.057141144 0.33788821
-0.16430843 -0.054945476 0.33929315
-0.17437194 0.06188184 0.35153371
-0.17469527 0.064575605 0.35063097
-0.17438547 0.06640923 0.35019043
-0.16742852 -0.057138249 0.3378883
-0.16760072 -0.055187657 0.33921263
-0.17719863 0.061778329 0.35152465
-0.17636898 0.064499445 0.35021642
-0.16923086 -0.057269398 0.33771008
-0.1704233 -0.055194587 0.33918163
-0.1804291 0.061279967 0.35147259
-0.17381015 -0.057555422 0.33764017
-0.17339517 -0.055181835 0.33888921
-0.17454572 -0.053469036 0.3393124
-0.18349473 0.058501691 0.35119861
-0.18329121 0.060718227 0.35095015
-0.18454561 0.062845305 0.35040981
-0.17591877 -0.057596114 0.33723611
-0.17641568 -0.055332642 0.33860916
-0.17668265 -0.053477477 0.33927548
-0.18610115 0.058022384 0.35110301
-0.18551588 0.060278598 0.35086328
-0.18541454 0.062964775 0.34977794
-0.17953625 -0.057430908 0.33683246
-0.17938727 -0.055470463 0.33808202
-0.18000829 -0.053089023 0.33915746
-0.18855874 0.05765349 0.35069755
-0.19027621 0.059972957 0.34923062
-0.19061357 0.062140342 0.34945795
-0.18073273 -0.057102039 0.33680573
-0.18222849 -0.055324759 0.33725315
-0.18259986 -0.052869692 0.33844033
-0.18325643 -0.050964557 0.33943477
-0.19206607 0.05789135 0.34947971
-0.19152373 0.060142338 0.34922776
-0.19130275 0.062061731 0.34943789
-0.18497607 -0.055007815 0.33695939
-0.18551196 -0.053015135 0.33805853
-0.18583952 -0.050357874 0.33935371
-0.18678236 -0.048485123 0.33964187
-0.18718708 -0.054607742 0.33696505
-0.18825988 -0.053005919 0.33767536
-0.18877502 -0.050365917 0.33879071
-0.18930675 -0.048484098 0.33959943
-0.19032435 -0.052082822 0.33818951
-0.19152148 -0.050194237 0.338952
-0.19226456 -0.048135299 0.33958688
-0.19393589 -0.049630016 0.33923057
-0.19503851 -0.047759168 0.33931029
-0.19585322 -0.045588255 0.33980033
-0.19832203 -0.047243793 0.33814931
-0.19843394 -0.045147948 0.33909824
-0.19906239 -0.043024726 0.33993563
-0.20005788 -0.047092695 0.33755594
-0.20109971 -0.045073271 0.33803916
-0.20149682 -0.042500749 0.33957416
-0.20244044 -0.040174447 0.34027132
-0.20342618 -0.041961171 0.33929816
-0.20452723 -0.039663836 0.34022552
-0.20543101 -0.037101101 0.34055111
-0.20636024 -0.035094265 0.34075138
-0.21241076 0.035341077 0.3482213
-0.21168053 0.037786022 0.34842691
-0.2114484 0.040477559 0.34794983
-0.20829831 -0.038702499 0.33869621
-0.20799738 -0.0370235 0.33972889
-0.20862077 -0.034357581 0.34066653
-0.20971163 -0.032210376 0.34100488
-0.21452531 0.032169741 0.34784472
-0.21426494 0.034298819 0.34777254
-0.21444121 0.037325162 0.34750116
-0.21449973 0.039977077 0.34680191
-0.20972711 -0.038841914 0.33827993
-0.21065481 -0.036785562 0.33865699
-0.21129593 -0.034137424 0.3396523
-0.21178082 -0.0313503 0.34072372
-0.21269703 -0.028664026 0.3413358
-0.21333501 -0.026506625 0.34155697
-0.21798648 0.028999895 0.34744561
-0.21724266 0.031366501 0.34709772
-0.21696043 0.034195498 0.34630588
-0.21701507 0.03704359 0.34639132
-0.21646924 0.039496291 0.34658775
-0.21269119 -0.035823513 0.33855444
-0.21348783 -0.033799347 0.33875868
-0.21437101 -0.031254407 0.33936539
-0.21484023 -0.028563395 0.34037969
-0.2152361 -0.025778014 0.34123662
-0.2158305 -0.022966709 0.34182936
-0.21641988 -0.020248499 0.34217772
-0.22019075 0.019997418 0.34644067
-0.22026625 0.022081517 0.34666345
-0.22004259 0.025213581 0.34700391
-0.21983276 0.027949348 0.34686887
-0.21977264 0.030799452 0.34616125
-0.21933253 0.033731125 0.34591976
-0.21889849 0.035956245 0.34616625
-0.21638808 -0.030413881 0.33907366
-0.2169954 -0.028403249 0.33930194
-0.21780184 -0.025739182 0.33991516
-0.21825689 -0.022852946 0.34083667
-0.21861789 -0.019931126 0.34179229
-0.21923968 -0.017173916 0.34234592
-0.21991523 -0.014217827 0.34276712
-0.22038141 -0.011661371 0.34303406
-0.22194764 0.0045569683 0.34475118
-0.22200504 0.0068295025 0.34499452
-0.22223601 0.0097334869 0.34530279
-0.22219905 0.012795581 0.34563261
-0.2220096 0.015767969 0.34570098
-0.22192129 0.018730097 0.34582722
-0.22213206 0.021818146 0.34587398
-0.22221729 0.024813302 0.34591031
-0.222096 0.027586248 0.34572202
-0.22183052 0.030249428 0.34550336
-0.21973918 -0.024597164 0.33964247
-0.22031245 -0.022556305 0.33985221
-0.2210823 -0.019887529 0.3403807
-0.22168526 -0.016990095 0.34104425
-0.22205901 -0.014129593 0.34171021
-0.22227171 -0.011315879 0.34243372
-0.22268319 -0.0084028356 0.3429054
-0.22294988 -0.0052852761 0.3432613
-0.22316943 -0.0022836048 0.34359267
-0.22344759 0.00065733306 0.34387851
-0.22353569 0.0035990903 0.34425557
-0.22388607 0.0066897422 0.34431192
-0.2241445 0.0096265338 0.34449655
-0.22437474 0.012561324 0.34464255
-0.22459549 0.015549957 0.34451881
-0.22473542 0.018652327 0.34453973
-0.22452135 0.021505829 0.34460539
-0.22405344 0.023931157 0.34478664
-0.22357887 -0.016306534 0.340469
-0.22413233 -0.014010587 0.34070653
-0.22452244 -0.01111397 0.3411527
-0.22498551 -0.0082577048 0.34161216
-0.22532897 -0.005379485 0.34216276
-0.22561868 -0.0024423562 0.34238023
-0.22587909 0.00049702381 0.34262878
-0.22598702 0.0034603756 0.34282082
-0.22610913 0.0064509721 0.34297782
-0.2263076 0.0095300861 0.3432005
-0.22641815 0.0124278 0.34351021
-0.22638622 0.015261608 0.34381527
-0.22637078 0.017397612 0.34404519
-0.10703214 -0.0035615154 0.34682167
-0.10694149 -0.0016067922 0.34703329
-0.10692871 0.0012876936 0.34734467
-0.10707015 0.0041217543 0.34764695
-0.10728407 0.0071135913 0.34796497
-0.1074362 0.010063436 0.34827951
-0.10788658 0.013050688 0.34859306
-0.10824066 0.016015776 0.34890583
-0.10857776 0.018810906 0.34920064
-0.10900957 0.021398559 0.34947157
-0.10870886 -0.013143453 0.3457633
-0.10837811 -0.010746153 0.34605706
-0.10846666 -0.008016563 0.34640765
-0.10860579 -0.0049928445 0.34668696
-0.10883027 -0.002026313 0.34729838
-0.11018437 0.018742524 0.34944564
-0.11056402 0.021900922 0.34949934
-0.11129948 0.024627842 0.34978008
-0.11219168 0.027372416 0.35006011
-0.11262429 0.029335111 0.35026383
-0.11133901 -0.021903835 0.34477723
-0.11098965 -0.019961879 0.34499183
-0.11080421 -0.0171079 0.34536624
-0.11076386 -0.014174256 0.34595311
-0.11097593 -0.011189996 0.34675464
-0.11292072 0.025050137 0.34979814
-0.11337745 0.027631868 0.350068
-0.11417399 0.030483585 0.35036114
-0.11531109 0.03318524 0.3506324
-0.11601524 0.035255097 0.35084307
-0.11330469 -0.02276488 0.34465146
-0.11314829 -0.020394199 0.34519956
-0.11340316 -0.017586928 0.34608665
-0.11645731 0.03439866 0.35074356
-0.11681381 0.035788216 0.35088691
-0.1166347 -0.028911024 0.34393463
-0.11620298 -0.026412871 0.3443324
-0.11596269 -0.023575559 0.34499228
-0.11876374 -0.032286476 0.34353584
-0.11854329 -0.029737521 0.34407651
-0.12130007 -0.03535514 0.34316319
-0.12105896 -0.032897431 0.34369302
-0.12448844 -0.038261436 0.34279704
-0.12388644 -0.036194216 0.34328344
-0.12732732 -0.041498993 0.34240112
-0.12679669 -0.039415084 0.34277624
-0.12955621 -0.042270459 0.34255087
-0.1326642 -0.044887304 0.3419469
-0.13633132 -0.047798209 0.34157217
-0.13829291 -0.048568163 0.34145629
-0.14089136 -0.049215108 0.34138668
-0.14420523 -0.051523842 0.34103891
-0.14378993 -0.0498625 0.34160429
-0.14688794 -0.051784094 0.34096572
-0.14676659 -0.050117377 0.34174833
-0.14968829 -0.052356396 0.34085694
-0.15253852 -0.053112306 0.34072763
-0.15533692 -0.053167358 0.34067452
-0.15864338 -0.053486299 0.34067073
-0.16837995 0.060870871 0.35271397
-0.16130912 -0.053491503 0.34053901
-0.17122677 0.060756199 0.35265365
-0.16457139 -0.053672954 0.3404645
-0.16468696 -0.051647205 0.34136397
-0.17426759 0.060374808 0.35256138
-0.16735442 -0.053932872 0.34038964
-0.1677255 -0.051976502 0.3412396
-0.17728953 0.060469106 0.35252059
-0.17043026 -0.053938232 0.34033719
-0.17069605 -0.052123442 0.34094614
-0.1801571 0.059936743 0.352415
-0.17259991 -0.053871676 0.34030783
-0.17367211 -0.052300043 0.34087414
-0.18196778 0.059420057 0.35232899
-0.17660816 -0.052273922 0.34055918
-0.17691252 -0.049693171 0.34183082
-0.17931354 -0.052016057 0.34039408
-0.17986052 -0.049920496 0.34138393
-0.18160933 -0.051542062 0.34040636
-0.18276273 -0.049722724 0.34079304
-0.18515329 -0.049040046 0.34061557
-0.18601522 -0.047209695 0.34133855
-0.1890056 -0.047143478 0.3410601
-0.18939346 -0.044786975 0.34190246
-0.19185336 -0.04699957 0.34072196
-0.19237144 -0.044919066 0.34121206
-0.19514509 -0.044706453 0.34091297
-0.19570044 -0.042201452 0.34165233
-0.1972536 -0.043919392 0.34096208
-0.19840072 -0.041959237 0.34118345
-0.19877334 -0.039428249 0.34211496
-0.20046437 -0.041315284 0.34118789
-0.20156588 -0.039260142 0.34146383
-0.20207967 -0.036689609 0.34229895
-0.20366478 -0.038530972 0.34143326
-0.20435102 -0.036551796 0.34163442
-0.20536007 -0.033995446 0.34233826
-0.2057125 -0.031130902 0.34355047
-0.21211179 0.034859028 0.34918037
-0.20772696 -0.03349876 0.34190571
-0.20850164 -0.031157594 0.34238285
-0.20889272 -0.028343532 0.34313676
-0.21494837 0.029329401 0.34853816
-0.21402897 0.031199858 0.3487547
-0.21297988 0.033427607 0.3490119
-0.21051979 -0.03069954 0.34215954
-0.21136507 -0.028375048 0.34239519
-0.21192841 -0.025597747 0.34288168
-0.21233445 -0.022622105 0.34365568
-0.21742991 0.022913601 0.3478066
-0.21708514 0.025309518 0.34806994
-0.21669301 0.028039891 0.34837008
-0.21628596 0.030270997 0.34861678
-0.21392743 -0.025087945 0.34270537
-0.21460035 -0.022613551 0.34296
-0.2153194 -0.019595973 0.34330657
-0.21615061 -0.017063472 0.34353051
-0.21709408 -0.014203536 0.34415737
-0.21764348 -0.011852097 0.34465241
-0.21899185 0.015793541 0.34741262
-0.21918496 0.018808305 0.34747162
-0.21910667 0.021775555 0.34765595
-0.2189523 0.024681121 0.3479709
-0.21849291 0.027396552 0.3482706
-0.21735269 -0.018525142 0.34335318
-0.21800262 -0.016770311 0.3435308
-0.2187016 -0.01409315 0.34380683
-0.21921983 -0.01106119 0.34416595
-0.2197201 -0.0081459712 0.34459323
-0.2198562 -0.0052609853 0.34512746
-0.22019395 -0.0023000021 0.34553415
-0.2204783 0.00070442026 0.3458232
-0.22057913 0.00374667 0.34594226
-0.22072427 0.0066436422 0.34604824
-0.2209928 0.009613594 0.34631673
-0.22101662 0.012582329 0.34663546
-0.22067161 0.015505116 0.34695548
-0.22058707 0.018353747 0.34726319
-0.22117864 -0.0099252574 0.34421316
-0.22158355 -0.0080499388 0.34440789
-0.22177789 -0.0054947268 0.34467933
-0.22197104 -0.0024580946 0.34500253
-0.22223181 0.00059490767 0.34532633
-0.22228694 0.0030499997 0.34558934
