# .PCD v0.7 - Point Cloud Data file format
VERSION 0.7
FIELDS x y z
SIZE 4 4 4
TYPE F F F
COUNT 1 1 1
WIDTH 1345
HEIGHT 1
VIEWPOINT 0 0 0 1 0 0 0
POINTS 1345
DATA ascii
-0.089624703 -0.015853081 0.33433744
-0.090746745 -0.018060602 0.33463007
-0.09155596 -0.020183273 0.33512419
-0.13732536 -0.096702054 0.33724043
-0.13883419 -0.098467946 0.33693266
-0.14027478 -0.10053669 0.33655429
-0.14155884 -0.10274556 0.33617347
-0.14302041 -0.10489157 0.33606645
-0.14442241 -0.10606305 0.33545917
-0.088303015 -0.0174344 0.33441859
-0.088653713 -0.019420436 0.334488
-0.089950338 -0.021607757 0.33461431
-0.090897925 -0.023848847 0.33542788
-0.091778971 -0.026250785 0.33567762
-0.13237672 -0.094035879 0.33729959
-0.13396882 -0.095465019 0.33718935
-0.13546935 -0.097361878 0.33664379
-0.13678324 -0.09956485 0.33592555
-0.13815431 -0.10166647 0.33554858
-0.13964587 -0.10396571 0.33550057
-0.14123271 -0.1057238 0.33646312
-0.087403752 -0.021000955 0.3345829
-0.088039391 -0.02289612 0.33464128
-0.089039296 -0.025164526 0.33483288
-0.090293944 -0.027452162 0.33524498
-0.091116153 -0.02950698 0.33562329
-0.09176939 -0.03169024 0.33589277
-0.12754503 -0.090796925 0.33729732
-0.12889539 -0.092321783 0.33732241
-0.13041806 -0.094301745 0.33698708
-0.13184124 -0.096523255 0.33630154
-0.13326147 -0.098693177 0.33561569
-0.13455613 -0.1009658 0.33551437
-0.135783 -0.1022848 0.33553466
-0.086621068 -0.024653841 0.33474758
-0.087177187 -0.026542062 0.33476424
-0.088247739 -0.028799068 0.33464661
-0.089652374 -0.031049522 0.3351379
-0.090781756 -0.033177946 0.3356142
-0.091800362 -0.035449065 0.3360064
-0.092718989 -0.037896067 0.33611324
-0.093461975 -0.039667975 0.33616394
-0.12101972 -0.085522816 0.3372587
-0.12202996 -0.087163419 0.33729723
-0.12375285 -0.089550868 0.33722159
-0.12566848 -0.09128692 0.33692047
-0.12701792 -0.093441755 0.33669022
-0.1282613 -0.095639423 0.3359434
-0.12957418 -0.097839385 0.33557454
-0.13100198 -0.10056348 0.33559105
-0.13261013 -0.10205691 0.33560821
-0.13362028 -0.1032358 0.33562848
-0.086246453 -0.030912649 0.33500466
-0.087287106 -0.032395151 0.33503616
-0.088621065 -0.034617551 0.33508927
-0.09000086 -0.036850564 0.33535972
-0.091125496 -0.039063025 0.33588326
-0.092457332 -0.041231293 0.33610335
-0.093417555 -0.043543521 0.33631819
-0.094179951 -0.04546655 0.33637434
-0.11631134 -0.082524732 0.33726272
-0.11781965 -0.084017336 0.33728245
-0.11928204 -0.085953802 0.33711541
-0.12065608 -0.088056818 0.33678064
-0.12206324 -0.090242676 0.33625153
-0.12350307 -0.092556819 0.33582169
-0.12507606 -0.094401896 0.3357341
-0.12653424 -0.096680239 0.33555385
-0.12789947 -0.098843083 0.33560377
-0.12909365 -0.10097784 0.33565706
-0.084872857 -0.031728324 0.33507255
-0.085793942 -0.033216443 0.33510742
-0.086874194 -0.035777632 0.33566383
-0.088125795 -0.037990961 0.33528548
-0.089223497 -0.040434651 0.33482334
-0.090342842 -0.042648245 0.33509946
-0.091806784 -0.044712096 0.33558509
-0.093169175 -0.046970658 0.33603781
-0.094372988 -0.049382597 0.33630803
-0.095163271 -0.051648721 0.33650953
-0.096351199 -0.054032043 0.33665627
-0.097647272 -0.056408927 0.33671644
-0.099021547 -0.0587359 0.33677262
-0.099865124 -0.060353853 0.33681461
-0.10557529 -0.070164651 0.33705369
-0.10678461 -0.072179392 0.33710182
-0.10836194 -0.074552149 0.33715454
-0.11016689 -0.076439761 0.33718213
-0.11170249 -0.078466997 0.33714095
-0.1131329 -0.080593541 0.33674407
-0.11454406 -0.082732916 0.3369641
-0.11592173 -0.084954798 0.33676586
-0.11711325 -0.087148517 0.33609593
-0.11848046 -0.089343399 0.33562353
-0.11981244 -0.091326408 0.33551708
-0.12170431 -0.093103752 0.33553812
-0.087821782 -0.042171128 0.33440733
-0.088375814 -0.043869417 0.33447924
-0.089770421 -0.045537863 0.33493134
-0.090846851 -0.048391744 0.33557555
-0.092167623 -0.050667822 0.33556774
-0.093562141 -0.052874893 0.33518803
-0.094878443 -0.055008467 0.33577693
-0.096145213 -0.057321213 0.33602145
-0.097384155 -0.05957862 0.33643615
-0.098780058 -0.061777037 0.33648947
-0.10008582 -0.064028785 0.33652493
-0.1014789 -0.06622754 0.33663201
-0.10270371 -0.068567313 0.33648562
-0.10416623 -0.070696518 0.33673429
-0.10545377 -0.072940558 0.33669537
-0.1068799 -0.075085059 0.33667222
-0.10809436 -0.077415615 0.33691263
-0.10959333 -0.079642788 0.33637956
-0.11126696 -0.081504092 0.33561832
-0.11238968 -0.084085986 0.33586365
-0.11366758 -0.086200587 0.3358874
-0.11503979 -0.08761251 0.33549452
-0.11814038 -0.091878965 0.33558246
-0.089529775 -0.049385816 0.33564901
-0.090566821 -0.051669806 0.33574685
-0.091923289 -0.053921361 0.3347649
-0.093196489 -0.055795189 0.33501434
-0.094641611 -0.058270596 0.33489633
-0.095884673 -0.060723633 0.33512229
-0.09698157 -0.062830821 0.3350594
-0.098414972 -0.065125003 0.33528078
-0.099625595 -0.06749808 0.33534729
-0.1006675 -0.069791473 0.33544552
-0.1020001 -0.071979851 0.33547887
-0.10335531 -0.074147329 0.33556908
-0.10476951 -0.076346122 0.33563641
-0.10608844 -0.078601316 0.33569309
-0.10751733 -0.08079119 0.33550185
-0.11094142 -0.085443377 0.33551547
-0.11184729 -0.086765781 0.33554414
-0.099347644 -0.070859581 0.33524087
-0.10055161 -0.072885074 0.3352896
-0.10154048 -0.074458845 0.33532608
-0.22108451 0.020135138 0.3314825
-0.22240081 0.018105287 0.33152846
-0.22363158 0.016340319 0.33156615
-0.22547051 0.013689335 0.33162302
-0.22705695 0.012008637 0.33164817
-0.22840893 0.009935081 0.3316949
-0.22942254 0.0075256489 0.33176374
-0.2309822 0.0052210763 0.33184934
-0.23243684 0.0031648576 0.33224943
-0.23322552 0.00081938505 0.33206508
-0.23445213 -0.0015112907 0.33198994
-0.23545864 -0.0038123466 0.3320547
-0.21376652 0.027541719 0.33138025
-0.21507435 0.025811482 0.33141458
-0.21649644 0.023931313 0.33145183
-0.218201 0.021776538 0.33160186
-0.2196914 0.019793086 0.33193535
-0.22095342 0.017511144 0.33206311
-0.22236893 0.015291702 0.33197853
-0.2236174 0.01306143 0.33238608
-0.22480902 0.010676537 0.33277833
-0.22643051 0.0086705796 0.33258954
-0.22773306 0.0064459778 0.33276716
-0.22914095 0.0042276084 0.33281681
-0.2303609 0.0020182058 0.33295819
-0.23180264 -0.00024566799 0.33277813
-0.23307145 -0.0025191102 0.33255944
-0.2343986 -0.0047944617 0.332524
-0.2354255 -0.0070590712 0.33235946
-0.23630977 -0.0092354156 0.33224678
-0.2376288 -0.011750946 0.33231184
-0.23864377 -0.013754554 0.33236465
-0.20742634 0.032721099 0.33134055
-0.20837757 0.031136345 0.33137843
-0.21030805 0.028807063 0.33142018
-0.21217498 0.02723657 0.33165133
-0.21355736 0.025186185 0.33202741
-0.21489802 0.023030505 0.33254242
-0.21616316 0.020671289 0.33292419
-0.21752706 0.018489543 0.33307412
-0.21895736 0.01632065 0.33326358
-0.22052464 0.014383428 0.33351472
-0.22193435 0.012092106 0.33374023
-0.22326849 0.0097637177 0.33363733
-0.22448307 0.0076807551 0.33379012
-0.2258528 0.0052232482 0.3336848
-0.22698872 0.0029834472 0.33353764
-0.22836174 0.00075062551 0.33359689
-0.22967219 -0.0015082732 0.33375111
-0.23101565 -0.0036914628 0.33398691
-0.23232561 -0.0059811193 0.33383083
-0.23365806 -0.0083219595 0.333547
-0.23509377 -0.010218408 0.33301654
-0.23628071 -0.012658821 0.33288342
-0.23760864 -0.014898572 0.33254293
-0.23824251 -0.016907623 0.33249959
-0.20426969 0.034305688 0.33136001
-0.20582482 0.032646257 0.33155435
-0.20713639 0.030474573 0.33193749
-0.20851715 0.028228574 0.33232397
-0.20993029 0.026088662 0.33288419
-0.21131396 0.023869853 0.33336315
-0.21300803 0.022156131 0.33361492
-0.21483724 0.019868203 0.3336578
-0.21593197 0.017798547 0.33371103
-0.21746883 0.015688468 0.33375448
-0.2287586 -0.0028415751 0.33419287
-0.23027992 -0.005376121 0.33425343
-0.23105408 -0.007270081 0.33430812
-0.23182836 -0.0095112845 0.33437642
-0.232838 -0.011733651 0.33436432
-0.23408955 -0.013824532 0.33415848
-0.23546189 -0.015046923 0.33349958
-0.2373217 -0.018370945 0.33258137
-0.23778686 -0.01965438 0.33262002
-0.19930923 0.037015576 0.33138207
-0.20083113 0.035495419 0.33142334
-0.20231932 0.033571083 0.33180505
-0.20369488 0.031313043 0.33284351
-0.20497906 0.029242668 0.33328035
-0.20663717 0.02725729 0.33350924
-0.2082178 0.025203388 0.33361918
-0.20935641 0.023893844 0.33364132
-0.23172253 -0.013217347 0.33452567
-0.23268338 -0.014818122 0.33456394
-0.23371404 -0.018226963 0.33467183
-0.23436892 -0.019660376 0.33471134
-0.23467264 -0.021606423 0.33478037
-0.19427423 0.040143941 0.33138943
-0.19571179 0.038586732 0.33159894
-0.19741851 0.03677341 0.33187795
-0.19883287 0.03465258 0.33264384
-0.20026752 0.032283176 0.3334552
-0.20189765 0.030510899 0.33357385
-0.20341849 0.028626941 0.33360881
-0.23580293 -0.028655395 0.33502948
-0.23652443 -0.029776856 0.33505502
-0.19086075 0.041248847 0.33143455
-0.19245279 0.039751757 0.33155236
-0.19378768 0.037688833 0.33268112
-0.19522244 0.035484832 0.33343813
-0.19697256 0.033704799 0.33357576
-0.19852272 0.032275703 0.333592
-0.23520014 -0.029161599 0.33506516
-0.23564227 -0.030706624 0.33511463
-0.23874252 -0.038915202 0.33335608
-0.23949119 -0.040239178 0.33338895
-0.18740551 0.041830685 0.33150142
-0.18898295 0.040676381 0.3315632
-0.19034317 0.038675506 0.33257824
-0.19163148 0.036469091 0.33356375
-0.19299772 0.035065796 0.3336255
-0.23479098 -0.035972051 0.33534485
-0.23534739 -0.037483055 0.33532175
-0.23725039 -0.039650496 0.33386737
-0.23813632 -0.041552465 0.33354506
-0.23829469 -0.043679107 0.33355597
-0.18360025 0.042507719 0.33157369
-0.18534946 0.041331451 0.33175945
-0.18676515 0.039415177 0.33247569
-0.18813786 0.037477989 0.33339471
-0.18959571 0.036423635 0.33366033
-0.23425356 -0.038581073 0.33546194
-0.23499233 -0.040718619 0.33492652
-0.23626527 -0.042983498 0.33445141
-0.23726685 -0.045265004 0.33409366
-0.23756486 -0.047198586 0.33371401
-0.18029855 0.043223087 0.33163133
-0.18156889 0.0423523 0.33199021
-0.18321712 0.040329117 0.33300033
-0.18462615 0.038333792 0.33359915
-0.18627888 0.037183043 0.33371663
-0.23354396 -0.042232506 0.33562458
-0.23421042 -0.04432296 0.33550039
-0.23531508 -0.046575606 0.3349376
-0.23659617 -0.048827603 0.334317
-0.23713514 -0.050705217 0.33398882
-0.17662701 0.045137066 0.33186072
-0.1777921 0.043310266 0.33254817
-0.1796452 0.041318465 0.33328867
-0.18100056 0.03930622 0.3337535
-0.18249877 0.037975822 0.33378363
-0.23313583 -0.045983344 0.33578342
-0.23347428 -0.047990039 0.33567905
-0.23448861 -0.050206054 0.33517867
-0.23574673 -0.052530743 0.3345075
-0.23623902 -0.054360874 0.33403143
-0.17344554 0.045501765 0.33171955
-0.17467383 0.044232924 0.33202013
-0.17611924 0.042154353 0.33325261
-0.17746446 0.0403588 0.33382034
-0.17906323 0.039268661 0.33382192
-0.23230082 -0.049627192 0.33594912
-0.23261535 -0.051537879 0.33582863
-0.2335594 -0.053785391 0.33515972
-0.23465902 -0.055890322 0.33441901
-0.2346622 -0.05791489 0.3342129
-0.1711361 0.044896353 0.3318035
-0.17279766 0.042926569 0.33281648
-0.17400728 0.041100409 0.33386308
-0.17561258 0.039982457 0.33388346
-0.23072669 -0.053270474 0.33613396
-0.2314416 -0.055015173 0.33589828
-0.23262817 -0.057218298 0.33531749
-0.23350674 -0.059130237 0.3348133
-0.16751182 0.045353372 0.33187976
-0.16885804 0.043914076 0.33235085
-0.17029372 0.041797187 0.333563
-0.17174399 0.040687691 0.33395624
-0.22987279 -0.056370154 0.33627868
-0.2305972 -0.058567196 0.33621818
-0.23177245 -0.060797364 0.33530724
-0.23264404 -0.062692344 0.33453929
-0.16561052 0.044386867 0.33219406
-0.16671106 0.042629231 0.33296466
-0.16803455 0.040554877 0.33382329
-0.22865981 -0.060124435 0.33645844
-0.22972646 -0.062239245 0.33614683
-0.23090899 -0.064491943 0.33528015
-0.23148087 -0.06663157 0.33463997
-0.16157219 0.044214416 0.33207929
-0.16310227 0.043282595 0.3328689
-0.16450746 0.041387636 0.33385557
-0.16619462 0.039979804 0.33412856
-0.22750163 -0.061570317 0.3365458
-0.2277028 -0.063531511 0.33660123
-0.22849347 -0.065725371 0.33581507
-0.22998099 -0.067960992 0.33473152
-0.23047236 -0.069641687 0.33478513
-0.15804043 0.045436244 0.33212286
-0.15930295 0.044122901 0.33235365
-0.16088551 0.042080652 0.33392242
-0.16257805 0.040953953 0.3341842
-0.22511938 -0.065877214 0.33677796
-0.22658268 -0.067130029 0.33644325
-0.22772315 -0.069258705 0.33525586
-0.22864532 -0.071014494 0.33488691
-0.15601063 0.044936884 0.33221865
-0.15737873 0.04304276 0.33318663
-0.1584824 0.04123823 0.33410677
-0.22398722 -0.066658035 0.33683825
-0.22430421 -0.068421409 0.33661535
-0.22554024 -0.070629269 0.33599129
-0.22673295 -0.072826326 0.33514354
-0.2270623 -0.074762508 0.33507621
-0.1524892 0.044957738 0.33228621
-0.15373474 0.043912161 0.33280191
-0.15514025 0.041673075 0.33365232
-0.15632433 0.040201727 0.33430502
-0.22260325 -0.070208728 0.33701453
-0.22330134 -0.071891099 0.33655065
-0.22462125 -0.074227877 0.33540776
-0.22553554 -0.075923666 0.33516175
-0.15061127 0.043932516 0.33237553
-0.15153344 0.04267427 0.33286333
-0.15292747 0.04047681 0.33442491
-0.15439416 0.03948335 0.33445513
-0.22059998 -0.071585305 0.33712104
-0.22119808 -0.073338956 0.33680221
-0.22247776 -0.075690046 0.33587039
-0.22327432 -0.077419505 0.33530825
-0.1481304 0.042732257 0.33258131
-0.14904217 0.041239161 0.33358645
-0.15056255 0.039439421 0.33455646
-0.21916908 -0.074832886 0.33728641
-0.22021957 -0.076877758 0.33669806
-0.22132654 -0.078951195 0.33570293
-0.22150594 -0.080758616 0.33545762
-0.14420658 0.043013465 0.33257848
-0.14576745 0.041895162 0.33284995
-0.14704168 0.03992096 0.33404019
-0.1481982 0.038741473 0.33464566
-0.21719065 -0.07675834 0.33741409
-0.21798141 -0.07828939 0.33700347
-0.21930707 -0.080467634 0.33598629
-0.22006597 -0.081790224 0.33553582
-0.14259666 0.042238954 0.3326509
-0.14359093 0.040729832 0.33326876
-0.14490592 0.038647588 0.33445337
-0.14572285 0.037242424 0.33476925
-0.21520147 -0.078055225 0.33751708
-0.21585198 -0.079565048 0.33710927
-0.21703556 -0.081656262 0.33590972
-0.21782139 -0.083230443 0.3356511
-0.14010587 0.041090589 0.33276105
-0.14133269 0.039416682 0.33349618
-0.14283973 0.037680138 0.33482686
-0.14441697 0.036771048 0.33482185
-0.21378978 -0.080959432 0.33746183
-0.2147633 -0.083049148 0.33625042
-0.21578586 -0.084833354 0.33576739
-0.13671915 0.041535582 0.33283162
-0.13769262 0.040303003 0.33285496
-0.13908954 0.038030658 0.3334786
-0.14005809 0.036375333 0.33485979
-0.21156344 -0.082497239 0.33778709
-0.2125757 -0.08438237 0.33677167
-0.21368992 -0.086371526 0.33588266
-0.13550687 0.03895862 0.33296493
-0.13684064 0.036809187 0.33401638
-0.13816601 0.035546403 0.33503285
-0.20949014 -0.08402776 0.3379015
-0.21052407 -0.085714236 0.33719048
-0.21172257 -0.087792508 0.33602637
-0.13319598 0.037589397 0.33319521
-0.13456163 0.035484117 0.33465555
-0.20705 -0.085342735 0.33801693
-0.20815392 -0.087095723 0.33770832
-0.20931901 -0.089324951 0.33627573
-0.20994882 -0.090913787 0.33615947
-0.1300379 0.037533183 0.33316356
-0.13095804 0.036326107 0.33328739
-0.13238887 0.034220863 0.334692
-0.20486644 -0.086495325 0.33811924
-0.20602819 -0.088372469 0.33757228
-0.20722392 -0.090697318 0.33625749
-0.20788023 -0.092281252 0.33626726
-0.12737066 0.036070023 0.33329076
-0.12872303 0.034964737 0.33347747
-0.13003533 0.033066291 0.33490431
-0.20325543 -0.088040769 0.33822232
-0.20380409 -0.089766629 0.33788288
-0.2049565 -0.09195824 0.33675641
-0.20642775 -0.093023092 0.33633441
-0.12573335 0.035134081 0.33337027
-0.12654789 0.033665318 0.33398679
-0.12798715 0.031506252 0.33537596
-0.12819797 0.029956862 0.33551297
-0.20028205 -0.089743376 0.33836693
-0.20152907 -0.091094092 0.3380968
-0.20277867 -0.093413219 0.33714071
-0.2029947 -0.09507966 0.33650497
-0.12426332 0.034193609 0.3334457
-0.12440076 0.032365698 0.33384806
-0.12563232 0.030328099 0.33534598
-0.19820665 -0.090605788 0.33845487
-0.19929607 -0.092370242 0.33803338
-0.20069376 -0.094741359 0.33712199
-0.20207042 -0.095633358 0.33655086
-0.12076866 0.032083027 0.33362001
-0.1221091 0.030985598 0.33382314
-0.12342618 0.028856102 0.33518639
-0.12336985 0.026973892 0.33575639
-0.19416928 -0.090727091 0.33856478
-0.19569369 -0.091857031 0.33842283
-0.19707415 -0.093604147 0.33769062
-0.19838899 -0.095921829 0.33722535
-0.11932001 0.031163916 0.33369401
-0.11985444 0.029705811 0.33392775
-0.12125283 0.02745853 0.33497205
-0.12209176 0.025905978 0.33583182
-0.19255097 -0.091454759 0.33863562
-0.19353893 -0.093062326 0.33850434
-0.19477138 -0.095053583 0.3377485
-0.19598977 -0.097004429 0.33711427
-0.11783917 0.028212499 0.33399209
-0.11900393 0.026186451 0.3352381
-0.12001599 0.024349082 0.33594728
-0.19098786 -0.092536211 0.33871904
-0.1913299 -0.094319195 0.33831581
-0.19259113 -0.096484914 0.33748707
-0.19354028 -0.097985521 0.33694908
-0.11571875 0.026508924 0.33397153
-0.11677042 0.024763301 0.33521974
-0.11794096 0.022922702 0.33605757
-0.18764289 -0.094757646 0.3388938
-0.18897998 -0.095653802 0.3382524
-0.19026676 -0.097719237 0.33713102
-0.19101089 -0.099216774 0.3369801
-0.11364094 0.024993401 0.33408546
-0.11461405 0.023397978 0.33477265
-0.11560538 0.021260932 0.33595648
-0.18596233 -0.095583037 0.33897015
-0.18680671 -0.096903056 0.33787534
-0.18815701 -0.099027231 0.33704683
-0.18927734 -0.10044539 0.33707374
-0.11218687 0.02360763 0.33417809
-0.11254856 0.022008851 0.33458841
-0.11365257 0.019950073 0.3357861
-0.11416183 0.018566102 0.33632812
-0.18448991 -0.096573874 0.33904758
-0.18478777 -0.098424047 0.33835939
-0.18545827 -0.099659726 0.33714205
-0.11028598 0.020493854 0.3343505
-0.11147635 0.018634852 0.33526251
-0.1123506 0.016662043 0.3361457
-0.17925726 -0.096395612 0.33917665
-0.17929295 -0.096857861 0.33919397
-0.18291736 -0.098918498 0.33918115
-0.10794751 0.01914062 0.33446479
-0.10920478 0.017255951 0.3352325
-0.11052819 0.015169498 0.33580223
-0.10287379 0.022539355 0.33626106
-0.10428862 0.020142794 0.33496541
-0.10567603 0.018114761 0.33495879
-0.10696241 0.015802864 0.33508003
-0.10819002 0.013662551 0.33570847
-0.10921896 0.011603396 0.33651868
-0.10202797 0.02116891 0.33553982
-0.10279255 0.019390568 0.33559021
-0.10372952 0.01689804 0.33552626
-0.10493889 0.014582854 0.33489576
-0.10623287 0.012419268 0.33582795
-0.10748242 0.010166667 0.33627465
-0.10792255 0.0086437985 0.33688244
-0.10331479 0.01416317 0.334782
-0.10402247 0.010523327 0.33690953
-0.1052917 0.0086989105 0.33694857
-0.10609579 0.0073375069 0.33698156
-0.10215817 0.0092026182 0.33701023
-0.10306682 0.007417798 0.33705705
-0.10388989 0.0053915009 0.33711573
-0.16499335 -0.097806796 0.33960345
-0.10115116 0.007950861 0.33708593
-0.10106916 0.0060881041 0.33716157
-0.1023034 0.0040855035 0.33720857
-0.10274088 0.0021806546 0.3372725
-0.16367769 -0.098346204 0.33958739
-0.095626034 0.0080310479 0.33522427
-0.096239723 0.0070203617 0.3352482
-0.10001649 0.0014143437 0.33537146
-0.10104258 0.00025770627 0.33672523
-0.10118912 -0.0015781987 0.33746141
-0.16148163 -0.10079734 0.33817476
-0.16183536 -0.10187572 0.3378441
-0.094653413 0.0071341917 0.33528501
-0.094924964 0.0061175525 0.33531806
-0.098611601 0.00046502054 0.33544552
-0.099073052 -0.0011010077 0.33602303
-0.099967197 -0.002947513 0.33739707
-0.15533504 -0.095521942 0.33976445
-0.15617397 -0.097000957 0.33975327
-0.15740636 -0.099329948 0.33922982
-0.15901829 -0.10140936 0.3381336
-0.16057181 -0.10256207 0.3379041
-0.09702988 -0.0026013087 0.33588755
-0.098034993 -0.004622126 0.33712566
-0.098893985 -0.0068221744 0.3377282
-0.099648021 -0.0088415444 0.33778849
-0.15293445 -0.096396148 0.33976442
-0.15436171 -0.098161831 0.33921197
-0.15570414 -0.10068135 0.33865389
-0.15699847 -0.10190061 0.33801094
-0.09552779 -0.0039678458 0.33570087
-0.096195124 -0.0059382748 0.33616179
-0.097109042 -0.0080501679 0.3369118
-0.098355554 -0.010270048 0.33766696
-0.098854192 -0.012131454 0.33793911
-0.14916342 -0.09580338 0.33993611
-0.15064313 -0.097260505 0.33935234
-0.15201372 -0.099506289 0.33850074
-0.15362288 -0.10143133 0.33816758
-0.15508516 -0.10259302 0.33804807
-0.094783917 -0.0077530872 0.33586976
-0.095106974 -0.0095542278 0.33607763
-0.09623719 -0.011737026 0.33706924
-0.097269595 -0.014034363 0.33800271
-0.097905293 -0.015978817 0.33811581
-0.14286959 -0.091037549 0.33991152
-0.14400624 -0.092003278 0.33992001
-0.14534964 -0.094856769 0.33996657
-0.14707887 -0.096473008 0.33942848
-0.14847986 -0.098624885 0.33856365
-0.15003589 -0.10030746 0.33808908
-0.093846738 -0.011079563 0.3360256
-0.094403341 -0.013328047 0.33637682
-0.095362157 -0.015231791 0.33712271
-0.096575782 -0.017594099 0.33802247
-0.097156264 -0.019681986 0.33828154
-0.14094573 -0.091546655 0.33998162
-0.14218183 -0.093335718 0.34002006
-0.14354013 -0.095611319 0.33962554
-0.14479262 -0.097716182 0.33864701
-0.14603563 -0.09944962 0.33815923
-0.093329512 -0.014860699 0.33618841
-0.09345568 -0.016796753 0.33629799
-0.094413556 -0.018775098 0.3368797
-0.095813908 -0.020939682 0.33806312
-0.096407339 -0.023259938 0.33844244
-0.096997514 -0.025006387 0.33849606
-0.1371523 -0.090998441 0.34005871
-0.13855192 -0.092483312 0.33961743
-0.14006723 -0.094666496 0.3392269
-0.1413289 -0.096832573 0.33860588
-0.14294212 -0.098689705 0.33823246
-0.1442908 -0.099962205 0.33822492
-0.092282698 -0.018300734 0.33635154
-0.092775084 -0.020191509 0.33652163
-0.093656428 -0.022391519 0.33737853
-0.094914079 -0.024589136 0.33782417
-0.096048206 -0.026854252 0.33835343
-0.09662836 -0.029036155 0.33866489
-0.12921675 -0.082248524 0.3392081
-0.13316758 -0.090121858 0.33998471
-0.1350503 -0.09158805 0.33966425
-0.13641712 -0.093764961 0.33890143
-0.13782758 -0.095676929 0.33843932
-0.13935161 -0.09731628 0.33824885
-0.092252426 -0.023992633 0.33657718
-0.093033008 -0.025879007 0.33679524
-0.094093241 -0.028188908 0.33739111
-0.09536355 -0.030509776 0.33840835
-0.096211158 -0.032713361 0.3387965
-0.096937716 -0.034775365 0.33888358
-0.12764992 -0.08376468 0.33960792
-0.12781797 -0.086222246 0.34011284
-0.12984797 -0.088903651 0.33980834
-0.13150358 -0.090584487 0.33918819
-0.13298823 -0.092845261 0.33853078
-0.13458814 -0.0945182 0.33829671
-0.13590834 -0.095766857 0.33827722
-0.092100129 -0.027567131 0.3367224
-0.092439316 -0.029566625 0.33689901
-0.093167894 -0.031790912 0.33737457
-0.094450213 -0.033952311 0.33780089
-0.095727362 -0.036219619 0.33844402
-0.096945018 -0.038602497 0.33876655
-0.097862504 -0.040663037 0.3390587
-0.098576009 -0.042741194 0.33915564
-0.10076153 -0.046046633 0.3392294
-0.10105816 -0.046876516 0.33925447
-0.11106689 -0.063551173 0.3396529
-0.11899382 -0.076757506 0.33996844
-0.12235674 -0.082360193 0.34010231
-0.12355347 -0.083768219 0.3400358
-0.12506849 -0.085482821 0.33984303
-0.12657723 -0.087479301 0.33925435
-0.12808989 -0.089596525 0.33859277
-0.1297099 -0.091590665 0.33831605
-0.13123479 -0.09318006 0.33829656
-0.092093974 -0.033111192 0.3369416
-0.092950523 -0.035227202 0.33700287
-0.093890466 -0.037578456 0.33725485
-0.094896749 -0.039820679 0.33770776
-0.096309043 -0.041921787 0.33838138
-0.097584486 -0.044263691 0.33915809
-0.098952115 -0.046624899 0.33929917
-0.099953361 -0.048738144 0.33930486
-0.10151765 -0.051072787 0.33939368
-0.10248427 -0.053200804 0.33946714
-0.10354965 -0.055808425 0.33954254
-0.10510796 -0.057399802 0.33956477
-0.10805214 -0.063362166 0.33972383
-0.10957534 -0.064346224 0.33972296
-0.11030429 -0.066529542 0.33979031
-0.1106679 -0.06832426 0.33985183
-0.11314353 -0.071729407 0.33992198
-0.11447348 -0.07355395 0.33995938
-0.11602373 -0.075872928 0.33993649
-0.11748496 -0.077791467 0.33989555
-0.11840127 -0.079886153 0.33939233
-0.1201914 -0.08248096 0.33891594
-0.12181225 -0.084317163 0.33903587
-0.1231457 -0.086554803 0.33871645
-0.12446962 -0.088653646 0.33831158
-0.1258322 -0.090112306 0.3383159
-0.093895771 -0.041111909 0.33721077
-0.09460073 -0.043322306 0.33737791
-0.095612288 -0.045539577 0.33805206
-0.096626654 -0.04782147 0.33831796
-0.097934701 -0.050123949 0.33835036
-0.099420086 -0.052226257 0.3386229
-0.10071977 -0.054505307 0.33911082
-0.10203077 -0.056664824 0.33924922
-0.10316348 -0.058899455 0.33953157
-0.10415662 -0.061448332 0.3396906
-0.1058968 -0.06350787 0.33978558
-0.10738537 -0.065612286 0.33978581
-0.10872266 -0.067877755 0.33971065
-0.110064 -0.070044622 0.33950835
-0.11151646 -0.072279587 0.3393997
-0.11270295 -0.074620694 0.33915257
-0.1141379 -0.076973885 0.33893746
-0.11537882 -0.079127893 0.33881328
-0.11679398 -0.08117637 0.33855134
-0.11835077 -0.08308813 0.33825055
-0.12008682 -0.084776096 0.33825454
-0.094587803 -0.04726373 0.33743584
-0.095256552 -0.048924033 0.337484
-0.096313648 -0.051255427 0.33759746
-0.097514562 -0.053491108 0.33775294
-0.098710261 -0.055728033 0.33792043
-0.10005384 -0.057968281 0.33801326
-0.10133695 -0.060233001 0.33810642
-0.10266311 -0.062428564 0.33850351
-0.1036931 -0.064615116 0.33825108
-0.10542049 -0.066991426 0.33847955
-0.10659988 -0.069164962 0.33831048
-0.10791868 -0.071388252 0.33859411
-0.10933258 -0.073558405 0.33854216
-0.11081627 -0.075500876 0.33823574
-0.11254357 -0.077640489 0.33816883
-0.11397423 -0.079791836 0.33821663
-0.11519777 -0.081600189 0.33825627
-0.10023602 -0.06162991 0.3378565
-0.10114196 -0.063267455 0.3378976
-0.10248955 -0.065512523 0.33795124
-0.10396925 -0.067977697 0.33801016
-0.10516231 -0.069850348 0.33805308
-0.10666432 -0.072168648 0.33810565
-0.10769482 -0.073885471 0.33814666
-0.21860443 0.014662135 0.3347666
-0.21974526 0.013508826 0.33478251
-0.22095932 0.01158898 0.3348268
-0.22217178 0.0093260892 0.33488464
-0.22344011 0.0072997548 0.33493167
-0.22483537 0.0047974363 0.33499423
-0.22611007 0.0023232661 0.33505881
-0.22742924 0.00026348233 0.33510587
-0.22850226 -0.0018277764 0.33516058
-0.22995073 -0.0042409357 0.33521825
-0.23083588 -0.0057156365 0.33525348
-0.21098781 0.022493746 0.33465531
-0.21255594 0.021159563 0.33466733
-0.21387812 0.019359995 0.33470404
-0.21512064 0.017038763 0.33476344
-0.21659492 0.01488667 0.33495736
-0.21810433 0.012738846 0.33532095
-0.21928555 0.010538142 0.33512548
-0.22060102 0.0083618686 0.33507493
-0.22202963 0.0061699934 0.335316
-0.223407 0.0039390512 0.33562151
-0.22467673 0.0017089322 0.33581558
-0.22612128 -0.00058097765 0.33560967
-0.22735836 -0.0028624721 0.33547482
-0.22867039 -0.0050077941 0.33547938
-0.22983518 -0.0072752796 0.33550578
-0.23081198 -0.0096227229 0.33540854
-0.23171927 -0.011910196 0.33547524
-0.20592883 0.026377674 0.33463353
-0.20735998 0.024547428 0.33466864
-0.20912996 0.022529721 0.33476397
-0.21034411 0.020280126 0.33516821
-0.21192273 0.018327296 0.33562741
-0.2132704 0.016067129 0.3356632
-0.21458688 0.0137701 0.335877
-0.21586838 0.011568844 0.33596098
-0.21744381 0.0096229091 0.33599696
-0.21901894 0.0072174035 0.33605108
-0.22028083 0.004992228 0.33610618
-0.22154203 0.0027664974 0.33616126
-0.22261319 0.00048220903 0.33622351
-0.22422487 -0.0017428789 0.33626959
-0.22538947 -0.004032677 0.33632973
-0.22650291 -0.0063772388 0.33639339
-0.22794044 -0.0085133817 0.33642662
-0.2293804 -0.010764487 0.33617574
-0.23043945 -0.012997786 0.33567175
-0.23163533 -0.015245012 0.33560932
-0.23257533 -0.01809876 0.33569753
-0.23368363 -0.020035423 0.33574519
-0.2346205 -0.022040006 0.33579999
-0.19974834 0.031233434 0.33460239
-0.20107619 0.029742129 0.33462685
-0.20262355 0.027740192 0.33487284
-0.2041626 0.025755297 0.33532789
-0.20553698 0.023486137 0.33565751
-0.20693576 0.021221764 0.33579785
-0.20817795 0.019077264 0.33564198
-0.20995411 0.017330356 0.33588734
-0.21097866 0.014803167 0.33596036
-0.21246348 0.012329981 0.33601952
-0.21377285 0.010618821 0.33605313
-0.2246031 -0.0057293586 0.33641729
-0.22534965 -0.007254798 0.33645812
-0.22649668 -0.009445522 0.33651483
-0.2276555 -0.01195042 0.3365837
-0.22866343 -0.014094274 0.33660284
-0.22984616 -0.016651418 0.33669797
-0.23103726 -0.018903859 0.33663505
-0.23218274 -0.021033539 0.33603227
-0.23353943 -0.02335861 0.33588034
-0.23426819 -0.02561117 0.33595026
-0.23515439 -0.027917361 0.33601826
-0.19495122 0.034030337 0.33461669
-0.19625233 0.032881249 0.33462831
-0.19797051 0.031041909 0.33465636
-0.19931091 0.028785795 0.3351137
-0.20068368 0.026784435 0.33568919
-0.20222536 0.024765134 0.33579466
-0.20407115 0.022636224 0.33583069
-0.20467636 0.01993582 0.33592159
-0.20624107 0.018522225 0.33593675
-0.2094008 0.01410564 0.33602911
-0.21117996 0.011141557 0.33609992
-0.22911483 -0.020441167 0.33688116
-0.23007774 -0.022356592 0.33658412
-0.23146656 -0.024579212 0.3365984
-0.23266995 -0.026955681 0.33648849
-0.23402524 -0.029073752 0.33609349
-0.23485626 -0.031398252 0.33616367
-0.23552343 -0.033216462 0.33621803
-0.1909961 0.035306428 0.33466914
-0.19298439 0.033880647 0.33467388
-0.19436152 0.032034453 0.33483616
-0.19587408 0.029821523 0.33553758
-0.19728982 0.027814116 0.33580256
-0.19876318 0.026539315 0.3358146
-0.20307954 0.019311201 0.33598787
-0.22811007 -0.021946169 0.33696675
-0.22875416 -0.023493869 0.3370111
-0.22972625 -0.025772005 0.33707589
-0.23058584 -0.028175725 0.3371346
-0.23196588 -0.030384757 0.33673182
-0.23308718 -0.032582808 0.33632326
-0.23431213 -0.034855224 0.33631444
-0.23436505 -0.036896143 0.33639356
-0.18765008 0.036218319 0.33472016
-0.18938118 0.034945946 0.3348242
-0.19074236 0.032785151 0.33533156
-0.19238405 0.030918851 0.33573192
-0.19394489 0.028986491 0.33584329
-0.19538569 0.0276911 0.33585694
-0.22852123 -0.029747225 0.33726418
-0.22994772 -0.031763982 0.33730674
-0.23092185 -0.034004737 0.33710042
-0.2320883 -0.03628549 0.33657524
-0.23336041 -0.038483832 0.33648252
-0.23365092 -0.040361773 0.33654904
-0.18462241 0.03702927 0.33476689
-0.18585292 0.035932731 0.33486041
-0.18723524 0.033979323 0.33554482
-0.1889679 0.032321494 0.33584091
-0.226735 -0.030504042 0.33734062
-0.22906835 -0.035575379 0.33748031
-0.22999541 -0.037527055 0.33750284
-0.23135105 -0.039768975 0.33713782
-0.23252323 -0.041901458 0.33663934
-0.23293149 -0.044122215 0.33671632
-0.18052804 0.03814904 0.33482915
-0.18224582 0.036701519 0.33484179
-0.18366565 0.034793083 0.33550939
-0.1848243 0.033325743 0.33590901
-0.2279252 -0.036894236 0.33756211
-0.22874889 -0.038334332 0.33759758
-0.22984198 -0.041180272 0.33765301
-0.23050347 -0.043300107 0.33712247
-0.23178965 -0.045589935 0.33680415
-0.23240153 -0.047793429 0.33687523
-0.17744923 0.039116841 0.33487108
-0.17876208 0.037640546 0.33494225
-0.18013008 0.035568397 0.33555147
-0.18178378 0.033977199 0.33596244
-0.18315111 0.032817993 0.33597267
-0.22876994 -0.044888165 0.33773959
-0.22962783 -0.046997011 0.33737797
-0.23090041 -0.049239483 0.33697146
-0.23146775 -0.051008768 0.33702648
-0.17361055 0.040020023 0.33493516
-0.17521189 0.038514402 0.33503658
-0.1765708 0.036370028 0.33575314
-0.17810522 0.034825187 0.33602464
-0.22606684 -0.04659586 0.33799377
-0.22751325 -0.048241176 0.33795428
-0.22866309 -0.050551124 0.33763617
-0.22985885 -0.05260276 0.33719817
-0.22982922 -0.05443795 0.33720458
-0.17006794 0.040267322 0.33501759
-0.17158121 0.039435018 0.33508706
-0.17298678 0.037377108 0.33582583
-0.17435789 0.035497461 0.33609557
-0.22595477 -0.050164293 0.33813766
-0.2264502 -0.051963054 0.33819577
-0.22790051 -0.054065183 0.33783278
-0.2288079 -0.056265905 0.3373782
-0.2291438 -0.058275227 0.33737403
-0.16847135 0.039351393 0.33509529
-0.16935752 0.038239803 0.33555421
-0.1710109 0.036467839 0.3361443
-0.17239924 0.03516956 0.33615944
-0.22445281 -0.051247217 0.33821949
-0.22462183 -0.053237494 0.33829367
-0.22569337 -0.055449847 0.33835316
-0.22688524 -0.057642166 0.33770815
-0.227779 -0.059644796 0.33746371
-0.16429444 0.039968062 0.33517957
-0.16581233 0.038824443 0.33538169
-0.16673228 0.037387129 0.33588552
-0.16892295 0.036384273 0.33620188
-0.22339752 -0.055103302 0.33839929
-0.22358239 -0.056755796 0.3384597
-0.22485909 -0.058973975 0.33812416
-0.22601826 -0.061218489 0.33761656
-0.22670057 -0.063168332 0.33763093
-0.16088901 0.041087385 0.33522391
-0.16231523 0.039793652 0.3352381
-0.16365357 0.037780877 0.33604732
-0.16484448 0.03607684 0.3363201
-0.22183028 -0.058435678 0.33857173
-0.22254193 -0.060268536 0.33862549
-0.22380751 -0.062515333 0.33839715
-0.22522013 -0.064703569 0.33773017
-0.22660691 -0.065637998 0.33773088
-0.15904328 0.040141869 0.33530933
-0.16010778 0.038711298 0.3356472
-0.16139022 0.036571216 0.33639038
-0.16301912 0.035371359 0.33639547
-0.22046702 -0.059862915 0.33866358
-0.22092551 -0.061498519 0.33871627
-0.22172058 -0.063844204 0.33872563
-0.22285372 -0.065930068 0.33808461
-0.22312061 -0.067904398 0.3379111
-0.15653653 0.039097194 0.33541587
-0.15784118 0.03741074 0.33622706
-0.15896335 0.035718646 0.33648726
-0.21963312 -0.065491408 0.33890769
-0.22075909 -0.067416765 0.33870405
-0.22188213 -0.06960246 0.33801055
-0.15290841 0.039101418 0.33551002
-0.15432431 0.038091365 0.33568728
-0.15565115 0.036003258 0.33653462
-0.15696363 0.034856241 0.33657333
-0.21731448 -0.066790685 0.33901924
-0.21850926 -0.068759009 0.33904168
-0.21971674 -0.070871621 0.33828819
-0.21989547 -0.072904631 0.33819258
-0.15090121 0.038247686 0.33559597
-0.15194052 0.036904115 0.33598095
-0.1535283 0.035282951 0.33664584
-0.21603206 -0.068137094 0.33910584
-0.21641317 -0.070226967 0.33917838
-0.2176068 -0.072370954 0.33853024
-0.21842772 -0.074167982 0.33828074
-0.14843309 0.037546631 0.33568797
-0.14975244 0.035813246 0.3362681
-0.21445803 -0.072018042 0.33930013
-0.21547346 -0.073808625 0.33903629
-0.21644279 -0.075826041 0.33843961
-0.14645423 0.036221441 0.3357918
-0.14737515 0.034802724 0.33680052
-0.21268308 -0.073226772 0.33939397
-0.21329129 -0.075011566 0.33941826
-0.21448484 -0.077134684 0.33873048
-0.21447198 -0.078948379 0.33857241
-0.14283389 0.036431249 0.3358776
-0.14405414 0.035216819 0.33607152
-0.14544643 0.033780213 0.33691543
-0.2099531 -0.075197995 0.3395429
-0.21095935 -0.07636591 0.33956274
-0.21221915 -0.078509726 0.33896968
-0.21308453 -0.080206931 0.3386583
-0.14070831 0.035357337 0.33597538
-0.14174001 0.03374004 0.33637217
-0.14270917 0.031757161 0.33702487
-0.20891793 -0.077884167 0.33967596
-0.20997083 -0.079929963 0.3392038
-0.2109275 -0.081729904 0.33877462
-0.13829443 0.03433622 0.33607855
-0.13958931 0.03245274 0.33647892
-0.14086889 0.030614149 0.33702222
-0.20686221 -0.079419345 0.33979014
-0.20786336 -0.081284791 0.33946228
-0.20897654 -0.083151795 0.33888155
-0.13556197 0.034907196 0.33612695
-0.13596365 0.033419129 0.3364962
-0.13739789 0.031237446 0.33722517
-0.13838826 0.029734373 0.33725891
-0.20447041 -0.080724142 0.33990389
-0.20562957 -0.082625709 0.33949479
-0.2067492 -0.084387362 0.3389883
-0.13207692 0.032819469 0.33630008
-0.13371581 0.032006308 0.33673006
-0.13511418 0.029944804 0.33733565
-0.13673636 0.02898322 0.33733156
-0.20230189 -0.081939667 0.34000826
-0.2033217 -0.083942309 0.33966756
-0.20423526 -0.085705638 0.33910576
-0.13086076 0.032223497 0.33635524
-0.13150689 0.030713946 0.33675963
-0.13277349 0.028508563 0.33745331
-0.13273741 0.026796997 0.33752194
-0.20020774 -0.083693229 0.34013206
-0.20115341 -0.085335426 0.33984694
-0.20236863 -0.08741805 0.33922201
-0.20262349 -0.08896254 0.33927628
-0.12935303 0.029036202 0.3365539
-0.13061103 0.027182374 0.33736771
-0.13116944 0.025747791 0.33760417
-0.19766517 -0.084806047 0.34024221
-0.19894859 -0.086591408 0.33979097
-0.20017947 -0.08868131 0.33932889
-0.20155117 -0.089604922 0.33932954
-0.12604506 0.029206101 0.33659974
-0.12698382 0.027945764 0.33662528
-0.12850532 0.025883291 0.33751535
-0.12988701 0.025016192 0.33766645
-0.19566594 -0.085752875 0.34033152
-0.19681148 -0.087904066 0.34028795
-0.19757399 -0.089676097 0.33960277
-0.1248387 0.028483417 0.33665967
-0.12486754 0.026652377 0.33683151
-0.12613627 0.024674337 0.33777744
-0.19356345 -0.087812714 0.3404676
-0.19451129 -0.089243382 0.34011266
-0.19580504 -0.090577036 0.3395651
-0.12305026 0.025013216 0.3368879
-0.12385818 0.023206707 0.3378613
-0.12371199 0.021390319 0.33797035
-0.18921711 -0.087742008 0.34057793
-0.19084655 -0.088755459 0.3404845
-0.19221327 -0.090342082 0.33982247
-0.12087317 0.023440991 0.33696213
-0.12172292 0.021828465 0.33762753
-0.12266079 0.01993395 0.33805525
-0.18793336 -0.088295527 0.34063312
-0.18878493 -0.089784712 0.34021148
-0.18997359 -0.091908626 0.33972186
-0.18998273 -0.093709812 0.33979267
-0.11861993 0.021841761 0.33708388
-0.11946428 0.020410061 0.33753565
-0.12059259 0.018894993 0.33815008
-0.18545769 -0.089881361 0.3407602
-0.18647595 -0.091067426 0.34073991
-0.18761499 -0.093228906 0.34006935
-0.1886846 -0.094536528 0.33985907
-0.11662564 0.020662919 0.33718231
-0.11731921 0.019094292 0.33747655
-0.11837151 0.017542932 0.33826125
-0.18306085 -0.090932727 0.34086412
-0.18416479 -0.09243609 0.34044692
-0.1856117 -0.094534218 0.3400127
-0.18726167 -0.095248714 0.33992425
-0.1152958 0.019485909 0.33726338
-0.11510673 0.017756939 0.33754283
-0.11611164 0.01618604 0.33837369
-0.17914014 -0.09048143 0.34094828
-0.18061064 -0.091586873 0.34095359
-0.18190907 -0.093618959 0.34011167
-0.18332383 -0.095949247 0.34005448
-0.18364087 -0.09775801 0.34011754
-0.11334299 0.016091362 0.33761999
-0.11393593 0.014372136 0.33836609
-0.11445276 0.011970699 0.33858335
-0.17750403 -0.091361627 0.34102559
-0.17848136 -0.092757419 0.34101516
-0.1796741 -0.094833806 0.34017789
-0.18142672 -0.09717381 0.34015217
-0.18227279 -0.098747671 0.34019226
-0.11191868 0.014637653 0.33754277
-0.1121408 0.012894865 0.33789197
-0.1132257 0.010666825 0.33850434
-0.11352964 0.0090625733 0.33872223
-0.17491785 -0.09229555 0.34112981
-0.17617704 -0.094088256 0.34116772
-0.17750178 -0.096326783 0.34079075
-0.17878497 -0.098343551 0.3404673
-0.11038725 0.011279859 0.33771533
-0.11096168 0.0093337633 0.33826494
-0.11160144 0.0076981448 0.3388263
-0.17273478 -0.093595266 0.34123796
-0.173887 -0.095460117 0.3412815
-0.17528829 -0.097689599 0.34133318
-0.1764522 -0.099478111 0.34137368
-0.10893317 0.0077937767 0.33799711
-0.10992959 0.0058569759 0.33869666
-0.11005495 0.0038670637 0.3390179
-0.168855 -0.092755347 0.3413057
-0.17029452 -0.094598815 0.34087709
-0.17169873 -0.096721366 0.34073052
-0.17276613 -0.098580986 0.34081349
-0.10683331 0.006289348 0.33800501
-0.10799979 0.004385706 0.33837324
-0.10891341 0.002793964 0.33909002
-0.1631342 -0.089445546 0.3413237
-0.16530672 -0.092210636 0.34137639
-0.16685435 -0.093672439 0.34130678
-0.16816297 -0.095737606 0.34123155
-0.16935635 -0.097818583 0.34115893
-0.1049388 0.0050838292 0.33810189
-0.10573864 0.0029826313 0.33821824
-0.10670665 0.00094561093 0.33896148
-0.10668795 -0.00089759752 0.33929372
-0.16202973 -0.090656705 0.34140018
-0.16330326 -0.092897668 0.34136575
-0.16452615 -0.09489888 0.34064004
-0.16592126 -0.097392589 0.34074619
-0.16760273 -0.098664522 0.34143361
-0.1036884 0.0014671907 0.33827731
-0.10455997 -0.00037421472 0.33866775
-0.10538465 -0.0026928596 0.33939853
-0.1581392 -0.090606049 0.34149948
-0.15963981 -0.091976933 0.34148669
-0.16093418 -0.094120592 0.3410266
-0.16224617 -0.096381679 0.34061989
-0.16331604 -0.097826824 0.34064898
-0.10230275 -0.00012487732 0.33837613
-0.1025888 -0.0018047113 0.33884466
-0.1039672 -0.0039928798 0.33948666
-0.10479437 -0.0057980586 0.33953658
-0.15460876 -0.090009928 0.34156778
-0.15604404 -0.091197759 0.34141845
-0.15747865 -0.093097016 0.34097591
-0.15873353 -0.095387444 0.34067196
-0.16011018 -0.097650975 0.34072557
-0.1605041 -0.099248022 0.34077829
-0.10093663 -0.003462987 0.33857399
-0.10168652 -0.0054038335 0.3390235
-0.10298389 -0.0076695457 0.33951449
-0.1042807 -0.0097994655 0.33970791
-0.10459784 -0.011552755 0.33976904
-0.15065838 -0.089408934 0.34164682
-0.1524353 -0.090581328 0.34158796
-0.15380907 -0.092283919 0.34098953
-0.15518402 -0.094455004 0.34072745
-0.15723997 -0.096477374 0.34075379
-0.15825348 -0.098283321 0.3407988
-0.099509522 -0.0049170014 0.33863813
-0.10001627 -0.0067256279 0.33869651
-0.10094262 -0.0091270078 0.33885074
-0.10200549 -0.011210151 0.33951268
-0.10315021 -0.013288349 0.33987522
-0.10358059 -0.015414909 0.33994809
-0.14714609 -0.087879986 0.34167773
-0.14870325 -0.089508496 0.34159204
-0.15018435 -0.091394156 0.34113434
-0.15152062 -0.093693316 0.34079269
-0.1528566 -0.095387846 0.34082478
-0.099677816 -0.010729833 0.3388634
-0.10002778 -0.012568764 0.33897799
-0.10114159 -0.014623492 0.33983302
-0.10224531 -0.016635532 0.34003103
-0.14375079 -0.087257862 0.3417415
-0.14539337 -0.088422179 0.34138179
-0.14674124 -0.090467483 0.34084845
-0.14800797 -0.092699081 0.34084475
-0.14940616 -0.094783589 0.34089074
-0.15085086 -0.095917299 0.34089783
-0.098734267 -0.014099995 0.33902109
-0.099259973 -0.015807634 0.33927521
-0.10044977 -0.018353201 0.33993402
-0.10155892 -0.020598106 0.34020543
-0.10214852 -0.022423096 0.3402622
-0.14027669 -0.085843414 0.34177598
-0.14174166 -0.087507531 0.34163412
-0.14318794 -0.089510232 0.34113708
-0.14508608 -0.091526791 0.34087437
-0.1459782 -0.093882442 0.34094429
-0.14741869 -0.095057026 0.34095311
-0.097828016 -0.017650343 0.33918494
-0.09839949 -0.019602735 0.33924735
-0.09951809 -0.021834988 0.33967295
-0.10067117 -0.024012953 0.34023997
-0.10140222 -0.02636971 0.34043759
-0.10206024 -0.028581865 0.34050786
-0.13372532 -0.080454811 0.34173352
-0.13535532 -0.082188457 0.34175953
-0.13650338 -0.083930433 0.34179854
-0.13835835 -0.086594164 0.3414135
-0.13957849 -0.088607818 0.34092945
-0.14086041 -0.090543039 0.34094548
-0.097288281 -0.021558315 0.33935338
-0.097437181 -0.023277789 0.33941755
-0.098536648 -0.025413526 0.3396647
-0.099798635 -0.02770192 0.34036705
-0.10108863 -0.029981671 0.34058836
-0.1017984 -0.03211223 0.3406541
-0.12893434 -0.077897385 0.34175712
-0.13056119 -0.079306662 0.34177044
-0.13191536 -0.08117912 0.34162325
-0.13341165 -0.083149016 0.34184808
-0.13465174 -0.085625812 0.3419137
-0.13602221 -0.087993562 0.34157982
-0.13731381 -0.089885041 0.34101176
-0.13879493 -0.091255397 0.34102723
-0.097276144 -0.026623581 0.3395538
-0.097946517 -0.02903118 0.33966291
-0.099164709 -0.031198148 0.33990797
-0.10038055 -0.03340682 0.34025556
-0.10135958 -0.035683177 0.34069535
-0.1026599 -0.037984435 0.3408637
-0.10358347 -0.040337496 0.34093261
-0.10421923 -0.041942663 0.34097955
-0.12289123 -0.072643623 0.34170675
-0.1240607 -0.073896945 0.34172589
-0.12556283 -0.076002255 0.34176993
-0.12718755 -0.077952065 0.34180462
-0.128866 -0.080010653 0.34179473
-0.13019691 -0.081427023 0.34106281
-0.13395163 -0.08751063 0.34200642
-0.13416165 -0.089154631 0.34130043
-0.135188 -0.090396889 0.34108713
-0.096861541 -0.030562909 0.33972022
-0.097387545 -0.032425925 0.33978024
-0.098219469 -0.034748055 0.3398504
-0.099514417 -0.037022393 0.33994231
-0.1008595 -0.039256278 0.34057882
-0.10227904 -0.041456349 0.34101069
-0.10311641 -0.043792091 0.34081429
-0.10419467 -0.045750264 0.34106806
-0.10534184 -0.048633873 0.34121469
-0.1061883 -0.050105102 0.34125081
-0.10823698 -0.05336567 0.34132633
-0.10877615 -0.054416504 0.34135383
-0.11505695 -0.064300671 0.34158087
-0.11548841 -0.065599203 0.34162101
-0.12133831 -0.073107637 0.34176549
-0.12239255 -0.074735567 0.3418023
-0.12369601 -0.077042229 0.34185952
-0.12478446 -0.078302279 0.34188104
-0.12603171 -0.082363516 0.34200904
-0.12857652 -0.086839393 0.34136891
-0.1300566 -0.0882027 0.34160119
-0.13214505 -0.089406371 0.34112719
-0.097238362 -0.036352083 0.33993915
-0.097989492 -0.037907094 0.33998102
-0.099069767 -0.040649362 0.34016567
-0.10005897 -0.042703073 0.34031698
-0.10128816 -0.04493282 0.34022933
-0.10264006 -0.047318947 0.34064907
-0.1040556 -0.049208239 0.34072968
-0.1056923 -0.050800547 0.34123552
-0.10731134 -0.05360996 0.34136006
-0.1079124 -0.056199644 0.34136331
-0.11047582 -0.062740341 0.34163848
-0.11441029 -0.064413279 0.34160221
-0.115219 -0.065760598 0.34163439
-0.11904655 -0.074517988 0.34179375
-0.1197529 -0.075948305 0.34159786
-0.12195479 -0.078160889 0.34194908
-0.12336058 -0.081765532 0.34205493
-0.12425882 -0.08283776 0.34179941
-0.12484009 -0.084158555 0.34110987
-0.098630771 -0.044397112 0.34022075
-0.099201053 -0.045372721 0.34024447
-0.10116494 -0.048535898 0.34031838
-0.10213151 -0.05006497 0.34035361
-0.10339874 -0.053568069 0.34045908
-0.10407433 -0.055634804 0.34052318
-0.10634726 -0.058111183 0.34056184
-0.10655676 -0.060170051 0.34128368
-0.10822085 -0.06224978 0.34125355
-0.1097298 -0.063149355 0.34094593
-0.1139182 -0.071661115 0.34090021
-0.11481792 -0.072702795 0.34091797
-0.11726254 -0.075375766 0.34129369
-0.11828706 -0.076479629 0.34097695
-0.10455192 -0.059331641 0.34065676
-0.10521658 -0.060824752 0.34085259
-0.10645528 -0.062686227 0.34078756
-0.10791719 -0.066591188 0.34085605
-0.10807814 -0.06685932 0.34086245
-0.21680266 0.0086844042 0.3370519
-0.21800962 0.0068950392 0.33709121
-0.21924685 0.0044760853 0.3371546
-0.22050323 0.0024101995 0.33720353
-0.22181866 -0.00039086491 0.33727998
-0.22320509 -0.0022546574 0.33731753
-0.22433089 -0.004300585 0.33736908
-0.20932528 0.016502101 0.33693755
-0.20947169 0.015105985 0.33698887
-0.21171975 0.013047144 0.33701172
-0.21418875 0.0093061067 0.33709535
-0.21500224 0.007928241 0.33723173
-0.21635206 0.0057895966 0.33717799
-0.21776924 0.0042748936 0.33720097
-0.21931458 0.0011617206 0.33758926
-0.22041562 -0.00098033622 0.33733976
-0.22171593 -0.0031466894 0.33739153
-0.22301626 -0.0053130705 0.33744329
-0.22429726 -0.0075982269 0.33750024
-0.22553042 -0.010029031 0.3375642
-0.22661608 -0.012214497 0.33762228
-0.22769347 -0.014694192 0.33769223
-0.22867651 -0.016464911 0.33773664
-0.20015389 0.025556166 0.33681843
-0.20142089 0.023929089 0.33684975
-0.20316719 0.022150971 0.33687457
-0.20364827 0.020821642 0.33691454
-0.20746732 0.017218761 0.33695754
-0.2079411 0.015567217 0.33706319
-0.20845342 0.013514653 0.3377457
-0.2093876 0.010618545 0.33816946
-0.21056609 0.0089376271 0.33820522
-0.21345979 0.0062616765 0.33766359
-0.21476533 0.004563123 0.33739829
-0.21542187 0.0021642819 0.33818248
-0.21692324 -0.00014214031 0.33826426
-0.21817556 -0.0022481307 0.33788708
-0.21950798 -0.0043726619 0.33790967
-0.22079082 -0.0066600367 0.33798158
-0.2219971 -0.009078579 0.33763307
-0.22347817 -0.011295263 0.33766761
-0.2247785 -0.013461607 0.33771938
-0.22607879 -0.015627988 0.33777115
-0.22737914 -0.017794363 0.33782288
-0.22823441 -0.019859206 0.33788222
-0.19686663 0.026742093 0.33685708
-0.19834718 0.025180753 0.33688027
-0.19978397 0.023197249 0.33700755
-0.20139298 0.021039944 0.33741412
-0.20200041 0.01904767 0.33723828
-0.20338264 0.016140129 0.33810753
-0.2043162 0.013957545 0.33816946
-0.20665435 0.011972181 0.33841324
-0.20789215 0.0098632798 0.33877307
-0.20903513 0.0076227859 0.33887342
-0.21047753 0.0052674524 0.33862159
-0.21185139 0.0030322485 0.33864233
-0.21330848 0.00082641281 0.33845448
-0.21466073 -0.0013506673 0.33850536
-0.21596748 -0.003527727 0.33855736
-0.21727423 -0.0057047755 0.33860937
-0.21859756 -0.0078930669 0.33864599
-0.21984851 -0.010232354 0.33812845
-0.22126015 -0.0125765 0.33845469
-0.22268498 -0.014693304 0.33880833
-0.22395854 -0.016897436 0.33868051
-0.22513284 -0.019122571 0.33834344
-0.22652556 -0.021451131 0.33828166
-0.22766094 -0.023764923 0.33813775
-0.2287147 -0.026077235 0.33811536
-0.22906956 -0.027765371 0.33817282
-0.19155589 0.030106474 0.33686233
-0.19318883 0.028128348 0.336898
-0.19485971 0.026202377 0.33694452
-0.19615422 0.023886096 0.33726278
-0.19745566 0.021819513 0.33795673
-0.19858451 0.019040998 0.33811772
-0.2002607 0.017401565 0.33813912
-0.20157418 0.01522522 0.33821872
-0.20296973 0.012953732 0.33826971
-0.20432872 0.010736953 0.33908412
-0.20561668 0.0086104348 0.33934793
-0.20701189 0.0062859766 0.33940348
-0.2084071 0.0039615408 0.339459
-0.20979473 0.0017326102 0.33945212
-0.21102911 -0.00051176175 0.33881363
-0.21234803 -0.0027360916 0.33862028
-0.2136748 -0.0048936363 0.33871329
-0.21504422 -0.0070068967 0.33912215
-0.21630922 -0.0092283022 0.33918434
-0.21775514 -0.011520956 0.33915588
-0.21916392 -0.013804587 0.33955684
-0.22034505 -0.016024308 0.33918101
-0.22165856 -0.018247532 0.3389909
-0.22296529 -0.020424586 0.3390429
-0.22435439 -0.022723218 0.33909762
-0.22575751 -0.025054853 0.33907202
-0.22690494 -0.027234577 0.33856395
-0.22783624 -0.028845102 0.3382476
-0.2289142 -0.032174177 0.33835107
-0.18707597 0.032656778 0.33687809
-0.1885936 0.031316001 0.33689159
-0.19002539 0.02941246 0.33692956
-0.1912832 0.027176015 0.33713028
-0.19259198 0.025045678 0.33764169
