# .PCD v0.7 - Point Cloud Data file format
VERSION 0.7
FIELDS x y z
SIZE 4 4 4
TYPE F F F
COUNT 1 1 1
WIDTH 1049
HEIGHT 1
VIEWPOINT 0 0 0 1 0 0 0
POINTS 1049
DATA ascii
-0.088347889 -0.077563241 0.23098233
-0.089274354 -0.076061577 0.23092172
-0.091053523 -0.074294031 0.23082544
-0.10165951 -0.053018693 0.23005895
-0.10203233 -0.051567581 0.23001944
-0.10285132 -0.047533385 0.22991748
-0.10366338 -0.047017545 0.22987869
-0.10205752 -0.046472542 0.22992741
-0.10354696 -0.045245022 0.22985129
-0.056006264 0.036769807 0.23011528
-0.056872331 0.036922589 0.23008102
-0.052367445 0.037954703 0.23022655
-0.054274965 0.037531078 0.23016462
-0.056276552 0.037222344 0.23009735
-0.037899975 0.040468264 0.23070821
-0.039629932 0.040511228 0.23064448
-0.072338872 -0.091450453 0.23081255
-0.073931165 -0.090693064 0.23074102
-0.047252014 -0.10113077 0.23189871
-0.050057091 -0.10023011 0.23158047
-0.052823041 -0.099081427 0.23107395
-0.055537224 -0.097653672 0.23071538
-0.058326509 -0.096451931 0.23026298
-0.060954083 -0.095151164 0.23022914
-0.063623689 -0.093835302 0.23022628
-0.066334702 -0.092587233 0.23015796
-0.069101192 -0.091382444 0.23020324
-0.071755134 -0.090063155 0.23027392
-0.074397855 -0.088690028 0.23028588
-0.076951988 -0.087218277 0.2304724
-0.079423487 -0.085632719 0.23045054
-0.082294084 -0.083892569 0.23031497
-0.084622093 -0.082788639 0.23021048
-0.086202182 -0.081599429 0.23013179
-0.03590522 -0.10285124 0.23150855
-0.037982877 -0.10267159 0.23172542
-0.040773351 -0.10142427 0.2314264
-0.043484993 -0.10019031 0.23109309
-0.046148244 -0.098952115 0.23076148
-0.048849065 -0.097983748 0.23031014
-0.051724985 -0.097263068 0.22990614
-0.054660387 -0.096073858 0.22953708
-0.05734228 -0.0947982 0.22941664
-0.060024168 -0.093522564 0.22929622
-0.062706046 -0.092246898 0.22917579
-0.065592073 -0.090708204 0.22906545
-0.068238281 -0.089412957 0.22909054
-0.070875235 -0.088006817 0.22897673
-0.073550425 -0.086580977 0.22907519
-0.07612659 -0.084937289 0.22916707
-0.078673869 -0.083478823 0.22936033
-0.081316181 -0.082075663 0.2297316
-0.083945312 -0.080774955 0.23008914
-0.086427286 -0.079422757 0.23008458
-0.087984316 -0.077820539 0.22999933
-0.028866395 -0.10236543 0.23158927
-0.030981999 -0.10163554 0.23149918
-0.033945467 -0.10102295 0.23129073
-0.03665087 -0.10027817 0.23062527
-0.039553232 -0.099646762 0.23015086
-0.042662438 -0.098788567 0.23002234
-0.045197457 -0.097612701 0.22990903
-0.078219205 -0.081510849 0.22841915
-0.080337629 -0.079892725 0.22857724
-0.082777403 -0.078254148 0.22888492
-0.085429437 -0.076977178 0.22905025
-0.087842241 -0.075483024 0.22946733
-0.09005025 -0.073642574 0.2297467
-0.092167579 -0.072248146 0.22974744
-0.024700157 -0.10208797 0.23255238
-0.027317546 -0.1014028 0.23184463
-0.029906493 -0.10009176 0.23109561
-0.032649692 -0.099557765 0.23046309
-0.034837406 -0.099166833 0.23031393
-0.082742102 -0.076408252 0.22816327
-0.084688351 -0.074711286 0.22806209
-0.086919911 -0.073108315 0.22824113
-0.08962515 -0.071651325 0.22877245
-0.092310235 -0.070242435 0.22913194
-0.094117396 -0.068381526 0.22940709
-0.020725943 -0.10099047 0.23225936
-0.02276811 -0.10049945 0.23206379
-0.0270334 -0.099082001 0.23059648
-0.028191131 -0.098987401 0.23055263
-0.087163277 -0.071068801 0.22790685
-0.088771448 -0.069347508 0.22783482
-0.090946674 -0.067672499 0.22832239
-0.093824059 -0.066372171 0.22883812
-0.016612582 -0.099618211 0.23162884
-0.019132018 -0.098981775 0.23115236
-0.021433953 -0.098932043 0.23079759
-0.090624787 -0.065722376 0.22768527
-0.09281157 -0.063866489 0.22796576
-0.095109776 -0.062271565 0.22844404
-0.012556615 -0.098271489 0.23162597
-0.015103795 -0.097252816 0.23099802
-0.017236955 -0.097253002 0.23092036
-0.094545782 -0.060367431 0.22771625
-0.096962601 -0.058577806 0.22918312
-0.099215589 -0.05699461 0.22921827
-0.0086091915 -0.09685532 0.23169772
-0.011224488 -0.096117735 0.2311365
-0.013342148 -0.095978782 0.23103933
-0.096882626 -0.056163587 0.22928822
-0.098107852 -0.054403357 0.22844023
-0.10038684 -0.052999474 0.22897348
-0.10207521 -0.051088206 0.22900847
-0.0046042101 -0.095455967 0.23178543
-0.0070693493 -0.094619021 0.23124337
-0.097982034 -0.052422781 0.22818047
-0.09965729 -0.050515782 0.22826841
-0.10180214 -0.049072728 0.22877839
-0.10346573 -0.047730803 0.22889781
-0.00067777 -0.09373761 0.23238507
-0.0033357013 -0.093365252 0.23151219
-0.09864641 -0.047968671 0.22710815
-0.10106263 -0.047566213 0.22866955
-0.10353494 -0.043695509 0.22882311
0.001025171 -0.09221451 0.2324958
-0.10300383 -0.041972853 0.22881159
-0.10417501 -0.04107479 0.2287529
0.0048581073 -0.090036266 0.23190701
-0.10194064 -0.039323058 0.2280751
-0.10350943 -0.038257927 0.22817405
0.0086608604 -0.088491611 0.23226692
0.0066607259 -0.087789841 0.23162106
-0.10035036 -0.036775813 0.2268137
-0.10234386 -0.035736211 0.22728786
0.010067328 -0.085963696 0.23177631
0.0081180064 -0.08581645 0.2316388
-0.099204257 -0.033924829 0.22680444
-0.10098454 -0.033062112 0.22672422
0.01391859 -0.084426656 0.23221543
0.011849592 -0.084117174 0.23174426
-0.1005633 -0.030559255 0.22682311
0.015627101 -0.081952602 0.23184305
-0.1003651 -0.028272096 0.22766194
0.017177237 -0.080214813 0.2318684
-0.10059173 -0.023399975 0.22760367
-0.10008997 -0.021012766 0.22754213
-0.10083634 -0.016715273 0.22804518
0.023672339 -0.072437048 0.23196575
-0.099669382 -0.013405822 0.22802189
0.02502751 -0.069617428 0.23196466
-0.09763027 -0.011192188 0.22703053
0.028130572 -0.067683414 0.23204304
0.026377592 -0.067139737 0.23196951
-0.09680929 -0.008525271 0.22675721
-0.098855808 -0.0074487627 0.22786164
0.029585507 -0.065229326 0.23205212
0.027721018 -0.064299583 0.23196763
-0.095433854 -0.0058222208 0.22686268
-0.097535878 -0.0047273058 0.22782059
0.03105073 -0.062578186 0.23209655
0.029066361 -0.061578006 0.23196793
-0.094144754 -0.002861077 0.22672133
-0.096272148 -0.0019501448 0.22768202
0.029796109 -0.05882873 0.23194534
-0.093041606 -0.00057223067 0.22704698
-0.094964907 0.0007485915 0.22796236
0.033321466 -0.057042815 0.23222798
0.031342767 -0.056348853 0.2319573
-0.092364162 0.002551239 0.22825989
-0.093631633 0.0035681818 0.22826238
0.033017118 -0.053224016 0.23196238
-0.090591185 0.0055715423 0.22770223
-0.092351772 0.006073568 0.22822429
0.033876732 -0.050489604 0.23194477
-0.089600094 0.007821586 0.22763076
-0.091019429 0.0088256318 0.22822461
0.035305772 -0.047829326 0.23194923
-0.084599763 0.010228395 0.22654659
-0.087237746 0.010734422 0.22762856
-0.089900799 0.011500636 0.22832265
0.036251903 -0.04494141 0.23195355
0.03481086 -0.043057993 0.2318459
-0.084168002 0.011387328 0.22659424
-0.085824728 0.012988124 0.22771998
-0.088358454 0.013871947 0.22834615
0.037397131 -0.042236671 0.23198365
0.035458881 -0.041315816 0.23183833
-0.082237005 0.015941594 0.22753122
-0.084617592 0.015848352 0.22785366
0.038192227 -0.039506964 0.23223478
0.036582731 -0.038388487 0.2318269
-0.078507535 0.017301532 0.22664183
-0.080650598 0.017378967 0.22694093
0.039183404 -0.036619052 0.23193252
0.037308685 -0.035595961 0.2318034
0.036021564 -0.034376893 0.23173474
0.040031407 -0.034144793 0.23187655
0.038500033 -0.032937616 0.23179923
0.03712054 -0.03108713 0.23171592
0.039160222 -0.030158157 0.23192123
0.037298277 -0.028913818 0.23169467
0.035931457 -0.027257591 0.23160417
0.038029518 -0.026495341 0.23224217
0.036142945 -0.024963606 0.23157084
0.037003562 -0.02209617 0.23183149
0.035247538 -0.020349551 0.23145576
0.03773072 -0.019502927 0.23235598
0.035650078 -0.018022256 0.2316234
0.034049455 -0.016300241 0.23133975
0.03654065 -0.01541874 0.23220383
0.034373004 -0.013925582 0.23137808
0.032792076 -0.012128683 0.2312194
-0.060537815 0.031481307 0.2270925
0.035264395 -0.011484962 0.23204187
0.032879829 -0.0099465083 0.23131631
0.030601375 -0.008189518 0.23106922
-0.057012446 0.033178322 0.22726297
-0.059425086 0.033778459 0.22782774
0.033852417 -0.007587255 0.23210964
0.031276438 -0.0061669778 0.23151094
0.029685102 -0.0049272818 0.23097754
-0.050670054 0.034341127 0.22735046
-0.052956279 0.034585357 0.22756508
-0.055423569 0.035116229 0.22814941
-0.058069084 0.035957441 0.22878487
0.032338116 -0.0035559353 0.23198435
0.030018244 -0.0019902149 0.23123848
0.027801052 -9.5933676e-05 0.23082258
0.026101861 0.0011157366 0.23073904
-0.046098351 0.034870848 0.22750743
-0.048761047 0.035448089 0.22787118
-0.051381256 0.036421083 0.22862706
-0.053764869 0.036998913 0.22902226
0.032510553 -0.0012425547 0.2320153
0.030825663 0.00052628946 0.23192245
0.028337177 0.0017501591 0.23160103
0.026230142 0.00237126 0.23072128
-0.039668586 0.035690986 0.22772679
-0.042242289 0.036033142 0.22769159
-0.044779543 0.036717854 0.22800334
-0.047471337 0.037851445 0.22879592
-0.050043285 0.038757905 0.22928251
-0.052113295 0.038910925 0.22921787
0.029253017 0.0043715406 0.23225352
0.026945107 0.0062036794 0.2315546
0.02453189 0.0073647052 0.23087524
0.022114646 0.0088699339 0.23050705
0.020124018 0.01023464 0.23035842
-0.035350613 0.036337972 0.22794747
-0.037934244 0.036914773 0.22824462
-0.040796801 0.038025491 0.22857943
-0.043488592 0.039191928 0.22916886
-0.045739558 0.039154187 0.22929156
0.027408674 0.0075389659 0.23167257
0.02484034 0.0097205024 0.23154005
0.02289518 0.011086924 0.23134165
0.020293936 0.01238943 0.23075373
0.018079013 0.014024124 0.23023443
0.015584023 0.015992668 0.2300902
-0.025922153 0.035508938 0.22823043
-0.028362818 0.036303073 0.22816825
-0.031197436 0.037226215 0.22833812
-0.03394264 0.038153779 0.22863618
-0.036704149 0.039527271 0.22929595
-0.039603122 0.039984792 0.22961757
-0.04218724 0.040711023 0.22954696
0.021216206 0.014831012 0.2315
0.018678151 0.016367465 0.23114155
0.015883423 0.017680746 0.23062973
0.013323738 0.019100696 0.23037243
0.010896356 0.02065172 0.23001716
0.0083711315 0.022208493 0.22971651
0.0059118876 0.023774918 0.22959898
0.0030490598 0.02524632 0.22946848
0.0015740218 0.02594794 0.22940221
-0.013977722 0.033180587 0.22870685
-0.016252283 0.034003887 0.22860934
-0.019073095 0.035174157 0.22859299
-0.021821499 0.036112014 0.22859915
-0.024599954 0.037015062 0.22868744
-0.027321924 0.038182244 0.22894339
-0.029975645 0.039545842 0.22950403
-0.032695878 0.040351517 0.22974022
-0.035159495 0.041008338 0.22979744
0.014335447 0.021521792 0.23119698
0.011780527 0.022990484 0.23109393
0.0092026899 0.024272706 0.23058824
0.0065369559 0.025552195 0.2300338
0.0038095517 0.026896905 0.22975141
0.0011472153 0.028219372 0.22960718
-0.0015316447 0.029572703 0.22949734
-0.0042296029 0.030817049 0.22945555
-0.0070912167 0.032007292 0.22938535
-0.0098381881 0.033277277 0.22927277
-0.012517964 0.034523562 0.22920312
-0.015317815 0.035822064 0.2293925
-0.01798984 0.03703472 0.22958733
-0.020688459 0.038273863 0.2295326
-0.023429703 0.039031286 0.22933184
-0.04663828 -0.097136118 0.22884725
-0.048757665 -0.096507922 0.2287589
-0.051397767 -0.095831715 0.22855374
-0.054062255 -0.094841056 0.22819385
-0.056747869 -0.093564399 0.22804005
-0.059449054 -0.092279576 0.2279187
-0.062150262 -0.090994775 0.22779742
-0.064748541 -0.089581028 0.22777858
-0.067452274 -0.088083707 0.22776365
-0.070053287 -0.086698599 0.22780827
-0.072667368 -0.085326806 0.22768867
-0.07511586 -0.083896101 0.22757396
-0.076832697 -0.082774065 0.22749136
-0.036856212 -0.098811261 0.22923331
-0.039451934 -0.0982989 0.22905256
-0.042100523 -0.097537294 0.22869636
-0.044711351 -0.096228495 0.22818351
-0.047373377 -0.095005766 0.22762404
-0.050090957 -0.09393654 0.22720851
-0.052936986 -0.092739135 0.22708157
-0.055604648 -0.091374427 0.22678636
-0.058363061 -0.090205528 0.22643314
-0.061181359 -0.089075014 0.22635727
-0.063889384 -0.087766774 0.22642538
-0.066609778 -0.086305857 0.22631854
-0.069108948 -0.08475402 0.22645849
-0.071771093 -0.083404109 0.22662228
-0.074480034 -0.082103841 0.22663561
-0.077017635 -0.080741286 0.22702229
-0.079370089 -0.078871079 0.22728573
-0.081415512 -0.077466115 0.22722965
-0.029955273 -0.098657854 0.22948171
-0.032510411 -0.098198205 0.22923514
-0.035239995 -0.097446196 0.22841489
-0.037920862 -0.096267894 0.22768039
-0.040753134 -0.095483199 0.22735943
-0.043576065 -0.09457507 0.22696386
-0.046303581 -0.093507648 0.2267929
-0.048142098 -0.092826702 0.22671381
-0.068815663 -0.082864687 0.22578315
-0.071192443 -0.081595309 0.2256739
-0.073783621 -0.079848096 0.22554825
-0.07608933 -0.078354791 0.22567697
-0.078568541 -0.076920457 0.2260257
-0.081206292 -0.07551875 0.226711
-0.083565146 -0.07397034 0.22698425
-0.085860208 -0.072111055 0.22697215
-0.023781661 -0.09808214 0.22969614
-0.026015343 -0.097811155 0.22944319
-0.028590705 -0.097291544 0.22858158
-0.031385776 -0.096600667 0.22789156
-0.034045614 -0.095748514 0.22733173
-0.036340244 -0.095001705 0.22718228
-0.078257367 -0.075117446 0.22530097
-0.080509774 -0.073069736 0.22527054
-0.0826694 -0.071606435 0.2256249
-0.085447095 -0.070326775 0.22641762
-0.087611631 -0.068739824 0.22681624
-0.089157946 -0.066985734 0.22676045
-0.019897899 -0.096760705 0.22881304
-0.022226453 -0.096757948 0.22888224
-0.024688594 -0.096002236 0.22811987
-0.026937326 -0.095688082 0.22753683
-0.080179095 -0.070818506 0.22515415
-0.081886932 -0.069580421 0.22509414
-0.084383592 -0.067939967 0.22526012
-0.086833671 -0.066299111 0.22555424
-0.089383073 -0.064946607 0.22617276
-0.091598712 -0.063171595 0.22649463
-0.093131565 -0.061787073 0.22652286
-0.014921403 -0.095826387 0.22997831
-0.018478144 -0.095136762 0.22835374
-0.020576809 -0.094831116 0.22789401
-0.023157451 -0.094514363 0.22765343
-0.086270697 -0.06402079 0.22481075
-0.088341117 -0.062386155 0.2250758
-0.090939358 -0.061025299 0.22563988
-0.093174249 -0.059744511 0.22616562
-0.011347746 -0.094805054 0.22986083
-0.013982228 -0.094285108 0.2289748
-0.016508274 -0.093543239 0.22795996
-0.018711144 -0.093453355 0.22779629
-0.088012233 -0.06027519 0.22468051
-0.090257183 -0.058956333 0.22472419
-0.092618532 -0.057566233 0.22540556
-0.094689257 -0.055073805 0.22601248
-0.0075985072 -0.093457766 0.23007476
-0.010024421 -0.092922285 0.22912155
-0.012342867 -0.092007525 0.22809175
-0.094498269 -0.052793417 0.22528066
-0.09552861 -0.051843937 0.22530968
-0.0041869218 -0.091799416 0.22988005
-0.0060354276 -0.091486067 0.22933939
-0.0085229948 -0.090603285 0.22830801
-0.010640342 -0.090355396 0.22803469
-0.090712406 -0.050653081 0.22441016
-0.092418998 -0.050123185 0.2243384
-0.094937891 -0.049126815 0.22483419
-0.097712174 -0.047063187 0.22609283
-0.0024231169 -0.089330062 0.22847462
-0.0044375788 -0.089115389 0.22840935
-0.0066486783 -0.089161709 0.22815864
-0.091636106 -0.047926858 0.22467224
-0.094116852 -0.046458356 0.2252336
-0.09668202 -0.045020707 0.2258971
-0.098133475 -0.043460455 0.22601308
0.0044783354 -0.088363886 0.23055105
0.0022424594 -0.087324686 0.22978386
-0.0011534691 -0.087221533 0.22834386
-0.0025025187 -0.087233596 0.22827509
-0.094346374 -0.044387341 0.22516669
-0.095809214 -0.042312942 0.22553732
-0.097712971 -0.040835433 0.22591089
-0.099314928 -0.038994331 0.22589022
0.0055179279 -0.086841077 0.23042509
0.0032742033 -0.086121276 0.22964163
0.001140981 -0.085905857 0.22938481
-0.097388797 -0.039588325 0.22572075
-0.099834926 -0.038136184 0.22585596
0.01001074 -0.084378183 0.23068115
0.0065178834 -0.085159987 0.23019934
0.0047612265 -0.084523112 0.22949183
-0.094904862 -0.034935646 0.22397645
-0.09858001 -0.032792877 0.2258061
0.013251956 -0.08277671 0.23077051
0.011290166 -0.082996726 0.23070291
-0.094838627 -0.033398718 0.22406016
-0.097950123 -0.03239686 0.22562179
-0.099489979 -0.03153035 0.2257504
0.014572998 -0.081115171 0.23078893
0.013078485 -0.080755755 0.23041034
0.018646011 -0.078927405 0.23089801
0.016424075 -0.078813642 0.23077196
0.014356997 -0.078035414 0.22989722
-0.096214764 -0.024618626 0.22428645
0.018839939 -0.078210875 0.23089229
0.017469976 -0.077159844 0.23079926
0.015627585 -0.076566897 0.23003107
-0.095905624 -0.022093438 0.22467293
-0.097184621 -0.020709895 0.22464
0.018655729 -0.071778849 0.2287689
0.017872276 -0.071740508 0.22873971
-0.094611757 -0.019545164 0.22416492
-0.096441962 -0.018357852 0.22504203
0.02290437 -0.070630655 0.23083797
0.020242091 -0.070420913 0.22927244
0.018657506 -0.070318654 0.22874279
-0.093635462 -0.016753348 0.22401923
-0.095650055 -0.015433997 0.2250039
0.0236548 -0.069064878 0.23066741
0.021695524 -0.068195708 0.22941379
0.02040543 -0.066883311 0.22874506
-0.094901755 -0.012582055 0.22554354
-0.096210822 -0.011370882 0.22550932
0.025334235 -0.066174448 0.23078628
0.023064237 -0.065396145 0.2292802
0.021269511 -0.064940602 0.22874175
-0.093622208 -0.0097537702 0.22508526
-0.095461816 -0.008799837 0.22549054
0.026401188 -0.063666284 0.23076232
0.024423398 -0.062831886 0.22950022
0.022760063 -0.062448237 0.22875148
-0.090209343 -0.0077779768 0.22366185
-0.092188612 -0.0072492771 0.22455744
-0.094111137 -0.0062364629 0.22549394
0.027926726 -0.061031923 0.23091576
0.026435662 -0.06120019 0.23086458
-0.089252509 -0.0053885356 0.22365399
-0.090894073 -0.0045806337 0.22438681
-0.092881955 -0.0034867954 0.22542274
0.028224116 -0.059293702 0.23089561
-0.088100128 -0.0027469955 0.2236487
-0.089538224 -0.0019232724 0.22423348
-0.091500968 -0.0011689784 0.22515115
0.030877111 -0.054774556 0.23083992
0.028425902 -0.053797498 0.22904804
0.027218914 -0.052840516 0.22874197
-0.08642453 0.0005756868 0.22365026
-0.088132501 0.00079397857 0.22410977
-0.090176433 0.00035715941 0.22451843
0.031625777 -0.052984443 0.23060763
0.029523462 -0.051815111 0.22930785
0.028038057 -0.05100143 0.22873893
-0.085403986 0.0020824848 0.22366048
-0.086767651 0.0032509398 0.22413093
0.032749712 -0.049712077 0.23071502
0.030815303 -0.049117785 0.22933297
0.029184081 -0.048328843 0.22873281
-0.085726917 0.0066989055 0.22531769
0.034023345 -0.047328856 0.23089276
0.032027952 -0.046498321 0.23007184
0.030316209 -0.04586105 0.22872993
-0.084954053 0.0089567229 0.22555555
-0.085898615 0.0097123496 0.22550771
0.034827404 -0.045064416 0.23088159
0.033258889 -0.043803368 0.23030625
0.03142786 -0.042890366 0.22871716
-0.08051122 0.010959667 0.22380483
-0.081825346 0.011785693 0.22445127
0.034997489 -0.040536925 0.23080678
0.032027509 -0.038635276 0.22866303
-0.079790831 0.012770463 0.22451538
-0.080910295 0.01316844 0.22462668
0.03522335 -0.038180061 0.23069076
0.033253107 -0.037030064 0.22939903
0.031564407 -0.035938103 0.22859786
-0.076485597 0.014483646 0.22376336
-0.077785075 0.015906183 0.22469147
0.035785761 -0.035910286 0.23075275
0.034609579 -0.034554705 0.23026356
0.032111842 -0.034075588 0.2285845
-0.077790044 0.018120948 0.22565252
0.037123993 -0.032591544 0.23074211
0.035903424 -0.031590428 0.23067965
0.033769161 -0.029575802 0.23022211
0.035940956 -0.029216509 0.23063874
0.034230854 -0.027641835 0.23035727
0.032858171 -0.026582398 0.22997898
0.03488211 -0.025150355 0.23052751
0.033689745 -0.024735318 0.23047665
0.031629838 -0.018819751 0.22903402
0.029976578 -0.017709855 0.22821423
0.034293413 -0.018580575 0.2303886
0.032649692 -0.016950808 0.22982132
0.030184161 -0.015562739 0.22866027
0.028434003 -0.014092192 0.2280933
-0.0600169 0.027432779 0.22513214
-0.061758809 0.02805471 0.22508988
0.033101134 -0.014476957 0.23027185
0.031345692 -0.01302656 0.22977452
0.029497802 -0.011702475 0.22919446
-0.059108604 0.030373737 0.22611344
-0.060300887 0.03013375 0.22598536
0.031727634 -0.01085471 0.23015706
0.029743474 -0.0091880485 0.23005486
0.028005745 -0.0080216071 0.22997092
0.02483177 -0.0049578762 0.22779895
-0.048668709 0.029740628 0.22450311
-0.050819393 0.030605933 0.22443251
-0.053791307 0.031286314 0.22518964
-0.056723021 0.032159328 0.22616823
-0.058883816 0.032033104 0.22609195
0.029483303 -0.0069550374 0.23000562
0.028500397 -0.0047593331 0.22970811
0.025940884 -0.0033663097 0.2281512
0.023886751 -0.0017781826 0.22770758
0.022267386 -0.00028362125 0.22762202
-0.044435143 0.030701889 0.22463994
-0.047112256 0.031327821 0.22482245
-0.049856938 0.032408282 0.22534026
-0.052557014 0.033310577 0.22597902
-0.054993443 0.033447132 0.22620825
0.028906472 -0.0026772711 0.2299082
0.026956692 -0.0010612821 0.22919668
0.024501894 0.00051725097 0.22828615
0.022090685 0.001971758 0.22768366
0.020087197 0.0037445473 0.22747064
-0.038128145 0.031452443 0.2248562
-0.040412318 0.031756602 0.22495583
-0.043141875 0.032599308 0.22546668
-0.045873281 0.033491287 0.22617723
-0.048675336 0.034106899 0.2263612
-0.050697405 0.034602024 0.22634402
0.025126468 0.0030070348 0.22956873
0.023005687 0.0044469265 0.2289746
0.020370841 0.0057585305 0.22799079
0.018122721 0.0073878746 0.22751212
0.015859269 0.0090013454 0.22722265
0.014101165 0.01028679 0.22713578
-0.03098676 0.031518094 0.22511496
-0.03344997 0.032171711 0.22501345
-0.036398951 0.033015698 0.22522768
-0.039052598 0.03404206 0.22597094
-0.041748978 0.034772467 0.22648661
-0.044171266 0.034885228 0.22657646
0.025508985 0.0051920144 0.22964376
0.0237073 0.0063666282 0.22955722
0.021292441 0.0078304661 0.22914699
0.018939525 0.0096117854 0.22868456
0.016456176 0.010957211 0.22789356
0.01390409 0.012398995 0.22732797
0.011520377 0.014016897 0.22702383
0.0094913682 0.015392696 0.22687669
-0.024182305 0.031393752 0.22536486
-0.026975419 0.032171518 0.22529086
-0.029617626 0.032934383 0.22550248
-0.032407459 0.034230758 0.22589408
-0.035068206 0.035084117 0.22644167
-0.037836261 0.035583563 0.22679463
0.018927142 0.011741576 0.22928706
0.016996719 0.013380719 0.22899736
0.014739082 0.014979203 0.22863945
0.012086404 0.016155582 0.22812141
0.0095687648 0.017556714 0.22744878
0.007040293 0.01911548 0.22700061
0.0044505317 0.020648479 0.22683544
0.0018884446 0.022001028 0.22655492
-0.00097027514 0.023484653 0.22635113
-0.0037222463 0.024782099 0.22622776
-0.0064462698 0.026077744 0.22610544
-0.0093750693 0.027312495 0.22597671
-0.012063393 0.02848243 0.22596329
-0.014739189 0.029659748 0.22588246
-0.017545151 0.030849991 0.22586627
-0.020412382 0.031860381 0.22589383
-0.023016248 0.033071663 0.22620998
-0.025744889 0.034051292 0.22643515
-0.028613299 0.035013396 0.22676234
-0.031175673 0.035862964 0.22688198
-0.033192005 0.036421899 0.22694865
0.014461418 0.017064016 0.22902936
0.012548582 0.018139299 0.22894055
0.010014855 0.019628037 0.2287105
0.0076622954 0.021157101 0.22841626
0.0051480783 0.022753239 0.22814378
0.0024996931 0.023997204 0.22775808
-0.00013583479 0.025338087 0.22739948
-0.0028470969 0.026613235 0.22732691
-0.0055699367 0.027890366 0.2272274
-0.008294126 0.029147897 0.22718275
-0.010987064 0.030407239 0.2272491
-0.01370559 0.0316764 0.22719115
-0.016482251 0.032766584 0.22720356
-0.019243602 0.033796832 0.2272314
-0.021931071 0.034763947 0.22733107
-0.023990877 0.035436682 0.2273012
0.00023134984 0.02725937 0.22832909
-0.0021188981 0.02842452 0.22822274
-0.0048148329 0.029706841 0.22810169
-0.0073074824 0.030837335 0.22799072
-0.010270853 0.032136582 0.2278596
-0.012158002 0.03303422 0.22777486
-0.04993749 -0.092390738 0.22563985
-0.052261695 -0.091367334 0.22553691
-0.055022109 -0.089910328 0.22541043
-0.057784814 -0.088705815 0.2252883
-0.060402121 -0.087660797 0.22517428
-0.063092805 -0.086407498 0.22505392
-0.065627187 -0.085115448 0.2249386
-0.067379221 -0.083948627 0.22485399
-0.038450688 -0.094600275 0.22609745
-0.040523354 -0.094078921 0.22601265
-0.043272384 -0.093208984 0.22588176
-0.04604077 -0.092050314 0.22562177
-0.04874308 -0.090990178 0.22527502
-0.051414933 -0.089722261 0.22489792
-0.054159254 -0.088396065 0.22489953
-0.056831628 -0.087082766 0.22475682
-0.059552506 -0.085879989 0.22445586
-0.062315501 -0.084565245 0.22416754
-0.065053836 -0.083247632 0.22421566
-0.067644984 -0.081926316 0.22444239
-0.070251353 -0.080466278 0.22437663
-0.072651714 -0.07901381 0.22448453
-0.074958548 -0.077390298 0.22446084
-0.029170975 -0.095737904 0.22645558
-0.031073876 -0.095185608 0.22637641
-0.03378186 -0.094303668 0.22611921
-0.036603667 -0.093415715 0.22575495
-0.039348844 -0.092255741 0.22539525
-0.042114623 -0.091002554 0.22478893
-0.044782896 -0.089695401 0.22419733
-0.047422387 -0.088631198 0.22384354
-0.050325081 -0.087643057 0.22355431
-0.053175744 -0.086366594 0.2235768
-0.055909939 -0.08516787 0.22332749
-0.058659859 -0.083952859 0.22316986
-0.061225109 -0.082510822 0.2230508
-0.063931465 -0.081128232 0.22306658
-0.066599116 -0.079634443 0.22315925
-0.069160447 -0.078183554 0.2230515
-0.071857512 -0.076839909 0.22331728
-0.074600533 -0.075488821 0.22377579
-0.077238321 -0.074053071 0.22404198
-0.079313807 -0.072696447 0.22421834
-0.025206547 -0.094403297 0.22657602
-0.027502369 -0.094352275 0.22645594
-0.029936958 -0.09334439 0.22587954
-0.032495197 -0.092142001 0.2249905
-0.03522449 -0.091035791 0.22441724
-0.038264208 -0.090479508 0.22402892
-0.041343153 -0.089326181 0.22389622
-0.043688286 -0.088249892 0.2237916
-0.069346964 -0.076175831 0.22264174
-0.071159348 -0.074784584 0.2225509
-0.073433302 -0.073060066 0.22262283
-0.076049462 -0.071461663 0.22284675
-0.078654319 -0.070113674 0.22342512
-0.081027523 -0.068454549 0.22362262
-0.083256856 -0.066928782 0.22385731
-0.020831337 -0.09346512 0.22664151
-0.023374267 -0.093078151 0.22611871
-0.025975235 -0.091949657 0.22528633
-0.028688082 -0.091211878 0.22455747
-0.031401124 -0.090503693 0.22427917
-0.033453405 -0.089853935 0.22419284
-0.075869687 -0.069565356 0.22228612
-0.077903613 -0.06793534 0.2222016
-0.080113307 -0.06617026 0.22234298
-0.082716122 -0.064966626 0.22308192
-0.085110486 -0.063438818 0.22364178
-0.086815804 -0.061724398 0.22374913
-0.016751423 -0.092260957 0.22674778
-0.019290058 -0.091845065 0.22605833
-0.021943243 -0.090520889 0.22511487
-0.024186373 -0.089832842 0.22452979
-0.079882339 -0.064128228 0.22204284
-0.081874296 -0.063368455 0.22245716
-0.084701747 -0.062115513 0.22313249
-0.086706668 -0.061230265 0.22374427
-0.013007979 -0.090858623 0.22687083
-0.015210192 -0.090454966 0.22589858
-0.017894719 -0.089376323 0.22508073
-0.020535119 -0.08871302 0.22469828
-0.0086784987 -0.089236312 0.2269914
-0.01126036 -0.088857405 0.22602376
-0.013929084 -0.088388018 0.225053
-0.016143486 -0.088048652 0.22479063
-0.0048799189 -0.087727167 0.22702968
-0.0072296169 -0.087483726 0.22610606
-0.0096610086 -0.086905487 0.22511747
-0.0034982515 -0.086053409 0.22668079
-0.0058349716 -0.085008994 0.2253314
-0.0080527337 -0.085301504 0.22503603
-0.0021249028 -0.083098397 0.22521244
-0.0041986173 -0.083527789 0.22514461
-0.0005558962 -0.081806295 0.22524641
-0.09234599 -0.036718421 0.22209993
-0.094201416 -0.035694189 0.22301489
0.0059793945 -0.079975285 0.22633907
0.0041066641 -0.07901302 0.22549449
-0.093759492 -0.033185393 0.22298613
0.0093229758 -0.077911884 0.22653721
0.0074006226 -0.078038491 0.22623068
0.0051632514 -0.077655628 0.22538039
0.010612799 -0.075852588 0.22638808
0.0093334168 -0.075503424 0.22579183
0.012050777 -0.073313989 0.22571732
0.01077743 -0.073016614 0.22550181
0.016279358 -0.071656443 0.22767942
0.0140213 -0.071263328 0.22667423
0.011755724 -0.071469329 0.22550975
0.017716136 -0.069310315 0.22750218
0.015292247 -0.068327837 0.22595346
0.018958835 -0.067084216 0.22727016
0.01684097 -0.066017084 0.22582492
0.018064035 -0.063436925 0.22559573
-0.08886987 -0.010839688 0.22176372
0.023798907 -0.061259896 0.2277672
0.02192283 -0.06067583 0.22668767
0.019732313 -0.060372759 0.22560172
-0.086803734 -0.0098550543 0.22138025
-0.088857286 -0.0085356524 0.22227606
0.023970522 -0.060781479 0.2277649
0.022488492 -0.058895517 0.22655867
0.021001138 -0.058126736 0.22560771
-0.085558996 -0.0071151387 0.22134542
-0.087967254 -0.0059712958 0.2222379
-0.089026593 -0.0043458501 0.22264272
0.024027623 -0.055553477 0.22612441
0.022160368 -0.054872915 0.22559187
-0.084367409 -0.0042357091 0.22103629
-0.086697124 -0.0031856764 0.22211388
-0.08811415 -0.0024276543 0.22264162
0.027140636 -0.05425825 0.22776365
0.025463229 -0.05342593 0.22688711
0.023422442 -0.052362785 0.22562575
-0.082924634 -0.0016809143 0.22099668
-0.085262023 -0.00043185242 0.22207016
-0.087051809 -7.6703727e-05 0.22263828
0.026665814 -0.050222743 0.2268164
0.024813626 -0.049367957 0.2256218
-0.081831843 0.00092746411 0.22094035
-0.084572569 0.0011056587 0.22244401
0.027435426 -0.048583306 0.22694816
0.025816364 -0.046729449 0.22559388
-0.080225296 0.0037741838 0.22089225
0.029320072 -0.044399649 0.22690411
0.026871534 -0.04394538 0.22582498
0.025648654 -0.042262804 0.22549322
-0.076533444 0.0056614429 0.2209169
-0.078656577 0.00625192 0.22131675
-0.080162391 0.0081737917 0.22197166
0.030128859 -0.042442665 0.22726086
0.02809562 -0.041173458 0.2260318
0.026411735 -0.040266413 0.22548531
-0.075161457 0.0079307882 0.22092637
-0.07745669 0.0081780832 0.22132809
-0.079923816 0.009026356 0.22259201
0.031276871 -0.039001189 0.22759973
0.029307585 -0.038443759 0.22648701
0.027228691 -0.037018057 0.22556013
-0.073923334 0.010098515 0.22125544
-0.075381055 0.012517679 0.22283792
-0.077300958 0.013598906 0.22274868
0.031393189 -0.037765741 0.22762355
0.03023003 -0.035737291 0.22726481
0.027986705 -0.034518745 0.22623655
0.026370525 -0.033228137 0.22535795
-0.072825201 0.013459153 0.22241363
-0.075099565 0.013744735 0.22282626
-0.076983467 0.014215948 0.2227492
0.030922379 -0.03305579 0.22752215
0.029174699 -0.031846792 0.22654748
0.026719708 -0.03059746 0.22542585
0.025283793 -0.02905337 0.22524376
0.031327296 -0.030845791 0.22749743
0.03016061 -0.029273912 0.22687347
0.027800323 -0.027855895 0.22592624
0.026174884 -0.026691101 0.22523396
0.02999033 -0.027014393 0.22637944
0.02859615 -0.025224794 0.22571997
0.026891951 -0.023800492 0.22520855
0.028900482 -0.022765417 0.22542977
0.027537152 -0.021073366 0.22545217
0.025763767 -0.019543139 0.22509123
0.028293496 -0.01782402 0.22657678
0.02631066 -0.016975969 0.22576758
0.024491981 -0.015635392 0.22506079
0.028805185 -0.016148953 0.22714284
0.027253654 -0.014459684 0.22677393
0.024885535 -0.01317416 0.22540599
0.022998091 -0.011467626 0.22484612
0.025080688 -0.011179649 0.2256774
0.023259668 -0.0093350783 0.22488271
0.021163423 -0.0075839553 0.22471008
0.019603696 -0.0060056802 0.2246249
-0.044525281 0.02453517 0.22174454
-0.047078736 0.024715265 0.22171755
-0.04963934 0.02544558 0.22237775
0.023797177 -0.0054737134 0.22639439
0.022052163 -0.005158667 0.22548237
0.019718202 -0.0036309599 0.22471189
0.018074762 -0.0018513491 0.22449498
-0.040794399 0.025393385 0.221865
-0.042868201 0.025900569 0.22208434
-0.045611784 0.027131986 0.22255322
-0.048017554 0.028119363 0.22342637
0.024459526 -0.0041877166 0.22677079
0.022840733 -0.0025926502 0.22651257
0.020525586 -0.0010543782 0.22568302
0.01802039 0.00038704276 0.22479002
0.015793249 0.0021945639 0.22433959
0.013988963 0.0035535358 0.22424962
-0.036589049 0.027512087 0.22198018
-0.039035611 0.027649524 0.22250041
-0.041720212 0.028380148 0.22348478
-0.044365127 0.029436376 0.22358835
-0.046860237 0.029791735 0.22356722
0.022667181 -0.00034824573 0.22663692
0.021044303 0.0011121128 0.22655165
0.018937813 0.0028388444 0.22609784
0.016520791 0.0042314585 0.22525573
0.014000813 0.0055880761 0.22457846
0.011544982 0.007138513 0.22416233
0.0091912989 0.008650383 0.22398384
-0.027340394 0.026394535 0.22233683
-0.029274486 0.027201332 0.222252
-0.032300238 0.028098401 0.22212584
-0.034918092 0.028866634 0.22244729
-0.037550051 0.029812872 0.22334446
-0.04042444 0.030434294 0.22378996
-0.042671256 0.030814167 0.2237014
0.018884063 0.0050215144 0.22640318
0.017205473 0.0063000573 0.22629695
0.014960311 0.007997022 0.22584619
0.012362548 0.0094448747 0.22510996
0.0096960766 0.010817417 0.22434402
0.0073031057 0.012374226 0.22396272
0.0047526769 0.01405094 0.22372572
0.0025122399 0.015390128 0.22362022
-0.012192848 0.02258433 0.22295631
-0.014310617 0.02344076 0.22286391
-0.016961133 0.024682619 0.22274522
-0.019855078 0.025729664 0.22262117
-0.022700775 0.026601281 0.22275507
-0.025505319 0.027564153 0.22282848
-0.028316516 0.028850975 0.22298336
-0.0310845 0.029987499 0.22314508
-0.033702172 0.03085145 0.22352032
-0.036266062 0.031541638 0.22392152
0.014595765 0.01021154 0.22615428
0.012878257 0.011468799 0.22606927
0.010621724 0.013132847 0.2257041
0.0080835791 0.014721969 0.22522289
0.0054990184 0.016083591 0.22474158
0.0028973818 0.017278254 0.22420305
0.0002906085 0.018692914 0.22391823
-0.002549977 0.020043749 0.22376557
-0.0052972976 0.021309495 0.22363061
-0.0079641053 0.022608478 0.22353581
-0.01070499 0.023730263 0.223354
-0.013470105 0.025148695 0.2234966
-0.016132955 0.02642731 0.2235029
-0.018801164 0.027678687 0.22354817
-0.021504179 0.02893904 0.22386633
-0.024351876 0.030164529 0.22404942
-0.027095113 0.030971151 0.22417864
-0.029536169 0.031389687 0.22416921
0.0081526069 0.016732551 0.22580317
0.0061881067 0.018061392 0.22570784
0.0035909163 0.01945015 0.22544786
0.001056144 0.020892981 0.22517037
-0.0015475862 0.022232044 0.22480595
-0.0042020162 0.023540195 0.22477883
-0.0068710311 0.024821848 0.22472149
-0.0096121822 0.025969053 0.22472529
-0.012371329 0.027138995 0.22476555
-0.01519077 0.028411888 0.22474463
-0.017877944 0.029538874 0.22462662
-0.02055533 0.030509969 0.22451189
-0.022570387 0.031250019 0.22442527
-0.045233045 -0.087797597 0.22272646
-0.047104113 -0.087191939 0.22264758
-0.04983183 -0.086181477 0.22253023
-0.052448187 -0.085048079 0.22241472
-0.055187367 -0.083791107 0.22229254
-0.0579089 -0.082606815 0.2221723
-0.060560215 -0.081130244 0.22204939
-0.063224703 -0.079751603 0.22192776
-0.065735303 -0.078448877 0.22181307
-0.068017237 -0.077130824 0.22170642
-0.035625633 -0.089613423 0.22310868
-0.038000073 -0.089075938 0.22298233
-0.040540922 -0.088028692 0.22281274
-0.043333516 -0.086830623 0.22273287
-0.046065807 -0.085571498 0.22231607
-0.065122709 -0.07696867 0.22153088
-0.067940563 -0.075498976 0.22168007
-0.07024622 -0.073847637 0.22156662
-0.072513103 -0.072043419 0.22145182
-0.074206762 -0.070945367 0.22137052
-0.026454259 -0.090246983 0.22345382
-0.028404739 -0.089887895 0.22337644
-0.031159848 -0.089053027 0.22319707
-0.033953018 -0.088053405 0.22280808
-0.036719482 -0.086798839 0.22220311
-0.070070617 -0.072181605 0.22154319
-0.072338171 -0.070842318 0.22143674
-0.07473965 -0.069089748 0.22131798
-0.076879606 -0.067071542 0.221204
-0.078578137 -0.065681584 0.22111727
-0.024949545 -0.088711984 0.22348119
-0.027255455 -0.088019714 0.22309574
-0.029847618 -0.086787172 0.22239272
-0.077616177 -0.065570474 0.22115031
-0.078797519 -0.064746112 0.22109258
-0.017990381 -0.087767318 0.2237176
-0.020501751 -0.087288313 0.22349629
-0.023280513 -0.086509444 0.22303218
-0.014062335 -0.086967625 0.22384629
-0.016556673 -0.086272418 0.22348146
-0.010278995 -0.085678503 0.22396095
-0.012694691 -0.085034877 0.2236013
-0.0064180093 -0.083721958 0.2240665
-0.0085933311 -0.08355394 0.22373156
-0.0023688609 -0.082209401 0.22418684
-0.0045268554 -0.081969187 0.22396256
-0.00087424926 -0.080395371 0.22393991
0.0027048523 -0.078412905 0.22430366
0.0067393556 -0.076010063 0.22440751
0.0081569217 -0.074446701 0.2244312
0.0096807545 -0.072243854 0.22440375
0.013026944 -0.069958985 0.22452818
0.011290697 -0.069759138 0.22408354
0.014219796 -0.067540884 0.22452836
0.012566918 -0.067063183 0.22386132
0.0157478 -0.065122947 0.2245408
0.017466176 -0.06272319 0.22456042
0.018506853 -0.060124375 0.22455186
0.019969322 -0.057143047 0.22446597
-0.084173687 -0.0076393476 0.21987583
0.020922232 -0.054651108 0.2245419
-0.08305981 -0.0050162775 0.21986948
0.022245739 -0.051662914 0.22453664
0.020333078 -0.050836373 0.22377205
-0.081626445 -0.0023059128 0.21987319
0.023473728 -0.049150839 0.22453642
0.021719253 -0.0481099 0.2238113
-0.080647282 0.00055481214 0.21985768
0.024565699 -0.046274882 0.22452477
0.022923075 -0.045383416 0.2240328
-0.079133108 0.0030497489 0.21986818
0.025269773 -0.044221379 0.22451362
0.024141081 -0.042661317 0.22403131
-0.078007147 0.0045613768 0.21988212
0.025172725 -0.039906159 0.22428651
0.022782607 -0.038705613 0.22318375
0.025896385 -0.037284452 0.22441246
0.024064204 -0.036029231 0.22355342
0.026261713 -0.034969017 0.22438429
0.024942949 -0.033246335 0.22409603
0.025160104 -0.030769387 0.22426912
0.023704972 -0.029314157 0.22365212
0.024715789 -0.026493851 0.22387245
0.022594294 -0.025296088 0.22318126
0.02560802 -0.023779843 0.22416049
0.023814533 -0.022559065 0.22379957
0.024613813 -0.019890014 0.22405474
0.022419896 -0.018483561 0.22347274
0.024618421 -0.017639205 0.22401462
0.023177538 -0.015873421 0.22390077
0.020881608 -0.014627988 0.22313261
0.023303021 -0.013715263 0.22389658
0.021753617 -0.011958418 0.22373557
0.01947722 -0.010567348 0.22306325
0.021814417 -0.0097373752 0.22377126
0.020194871 -0.008396199 0.22368839
0.01811529 -0.0065472564 0.22313583
0.015481375 -0.0052018808 0.2221103
-0.044247508 0.024089359 0.22076184
0.018515483 -0.0041591506 0.2235515
0.016569993 -0.0026063658 0.22321559
0.014028739 -0.0012445459 0.22264308
-0.038042746 0.024790131 0.22097512
-0.0401274 0.024590611 0.22090285
-0.042594034 0.024395965 0.22081651
0.016868822 -0.00055732951 0.22342716
0.0149806 0.0010546241 0.2233296
0.012552955 0.0025635455 0.22301783
0.0098647792 0.0039964654 0.22243571
-0.031129714 0.024845682 0.22122575
-0.033505674 0.025369424 0.22112995
-0.036213029 0.025966983 0.22102071
-0.038455948 0.026374217 0.2209318
0.012793488 0.0046131425 0.22318634
0.010703319 0.0061167795 0.22308339
0.0081160152 0.0078555737 0.22292401
0.006029509 0.0095276926 0.22285229
0.0036488473 0.011422042 0.22239816
0.0016131816 0.012767732 0.22204973
-0.023906786 0.023793727 0.22111171
-0.026656643 0.025038231 0.22124988
-0.029466484 0.026012529 0.22126548
-0.032254659 0.026894417 0.22114822
-0.034971729 0.02742378 0.22103985
0.0078294547 0.010136089 0.22290689
0.0064081466 0.011364042 0.22283323
0.004136418 0.012963684 0.22272193
0.0014640931 0.014519708 0.22255515
-0.0011103484 0.016018016 0.22231294
-0.0037922887 0.017165363 0.22196956
-0.0064652436 0.018527679 0.22175433
-0.0091893598 0.019854847 0.22166041
-0.012001567 0.021022936 0.22174241
-0.014661665 0.022181168 0.22182685
-0.017357742 0.023481298 0.22175151
-0.02014238 0.024552219 0.22163099
-0.023014117 0.025261834 0.22151378
-0.025724046 0.026188953 0.22139853
0.0010904893 0.016753485 0.22254327
-0.0005307612 0.017794751 0.22246568
-0.0028660861 0.018879162 0.22236127
-0.005654763 0.02013249 0.22223736
-0.0084349392 0.021454889 0.22211251
-0.010725262 0.022373691 0.22201267
