# .PCD v0.7 - Point Cloud Data file format
VERSION 0.7
FIELDS x y z
SIZE 4 4 4
TYPE F F F
COUNT 1 1 1
WIDTH 1049
HEIGHT 1
VIEWPOINT 0 0 0 1 0 0 0
POINTS 1049
DATA ascii
0.0072250841 -0.01915665 0.22788267
0.0068535227 -0.017431244 0.22792657
0.0057685613 -0.01517044 0.22802936
0.0028744 0.0084335115 0.22846563
0.0030066916 0.0099264141 0.22846945
0.0035789765 0.014004192 0.22846393
0.0029869624 0.014761742 0.2285156
0.0046785115 0.0147396 0.22838783
0.0036863084 0.016394423 0.22847801
0.075687543 0.077866107 0.2236165
0.074923918 0.078299306 0.22367808
0.079503886 0.077768736 0.22332783
0.07756903 0.078006044 0.22347584
0.07558395 0.078383096 0.22362909
0.09394592 0.075309336 0.2222161
0.092333324 0.075927377 0.22234339
0.017555546 -0.037558895 0.2259308
0.016310159 -0.036313109 0.22603621
0.03792645 -0.055062644 0.22423293
0.035567529 -0.053269215 0.22422692
0.033308785 -0.051247884 0.22402982
0.031207211 -0.048986446 0.22397445
0.02894997 -0.046909437 0.22383381
0.026920596 -0.04480882 0.22409147
0.024860103 -0.042681217 0.22438459
0.022731367 -0.040601239 0.22461709
0.020547936 -0.038547911 0.2249686
0.018510859 -0.036425084 0.22533305
0.016496241 -0.034253024 0.22563802
0.01461565 -0.032024115 0.22610687
0.012829002 -0.029707501 0.22635964
0.010708496 -0.027108178 0.22654359
0.0088865552 -0.025289966 0.22669774
0.0077963569 -0.023641005 0.22679527
0.047938526 -0.060441222 0.22259259
0.046074983 -0.059589505 0.22303733
0.043847743 -0.057475001 0.2230493
0.041686308 -0.055397987 0.22301848
0.039571799 -0.053333133 0.22298406
0.037319429 -0.05150548 0.22283435
0.034825064 -0.049854837 0.22275068
0.032435372 -0.047744233 0.22270894
0.030337766 -0.045645937 0.22288649
0.028240155 -0.043547656 0.22306404
0.026142567 -0.041449361 0.22324158
0.023942813 -0.039035708 0.22345205
0.021900222 -0.03693638 0.22377032
0.019889066 -0.034730315 0.22394969
0.017870607 -0.032501072 0.22434428
0.016017132 -0.030099215 0.22472173
0.014139201 -0.027885379 0.22519647
0.012172163 -0.025698846 0.22585854
0.01018176 -0.023612736 0.2265054
0.0083089909 -0.021513196 0.22677618
0.007377916 -0.019482465 0.22686523
0.054702431 -0.062326554 0.221898
0.052955762 -0.060931962 0.22204259
0.050363429 -0.059361555 0.22216274
0.04800982 -0.057734914 0.22180045
0.045453534 -0.056156907 0.22164957
0.042815153 -0.054309629 0.22186558
0.040822458 -0.052354477 0.2220339
0.015126335 -0.026146084 0.22421366
0.013699887 -0.023923025 0.22460644
0.011994744 -0.021579556 0.22518332
0.0099550933 -0.019500859 0.22564161
0.0082382038 -0.017306635 0.22632407
0.0068147862 -0.014848908 0.22684756
0.0052982392 -0.012831007 0.2270835
0.058797192 -0.063486896 0.22239663
0.056501705 -0.061944071 0.22198252
0.054438021 -0.059819341 0.22152512
0.051981881 -0.058380019 0.22119942
0.050048124 -0.057278626 0.22129272
0.01257092 -0.019824276 0.22446473
0.011305325 -0.017574258 0.22458096
0.009770019 -0.015328653 0.22500701
0.007778577 -0.013076594 0.22583514
0.0057721753 -0.010870005 0.22649026
0.0047306297 -0.0085261036 0.22696543
0.062856659 -0.063762709 0.22166906
0.061087921 -0.062613606 0.22170034
0.057415441 -0.059803881 0.22071387
0.056358159 -0.059328191 0.22079799
0.010189989 -0.013313051 0.2247044
0.0092522223 -0.011153619 0.22481239
0.0078256587 -0.0088706398 0.22553898
0.0056189517 -0.0067083845 0.22637039
0.067103505 -0.063812971 0.22059107
0.064907372 -0.062357455 0.22039597
0.062731192 -0.061531782 0.22029704
0.008713875 -0.0071156379 0.22487301
0.0073156236 -0.0046504694 0.22539526
0.0057461206 -0.0024017165 0.22612606
0.071352929 -0.063892163 0.22014324
0.069243051 -0.062061448 0.21980116
0.067236915 -0.0613495 0.21995899
0.0068363207 -0.00076707499 0.22534321
0.0053230701 0.0016668439 0.22706991
0.0037461892 0.0039064251 0.22735529
0.075531639 -0.063872688 0.21978161
0.07327079 -0.062286764 0.21951295
0.071323715 -0.061448097 0.2196499
0.0062166867 0.0039112885 0.22716892
0.0055704531 0.0060097212 0.22646353
0.0039606988 0.0080699567 0.22724657
0.0030224496 0.010430988 0.22747
0.079760283 -0.063888803 0.21942946
0.077675313 -0.062259905 0.21916346
0.006324193 0.0078442013 0.22619425
0.0054022651 0.010194838 0.22646889
0.0039288742 0.01224828 0.22721407
0.0028320369 0.01406133 0.22751792
0.084075019 -0.063597739 0.21959524
0.081619807 -0.062329903 0.21902102
0.0070815366 0.012303319 0.22520782
0.0051144022 0.013426246 0.22702651
0.0041098022 0.017889846 0.2274569
0.086191222 -0.062732808 0.21951979
0.0051825265 0.019337062 0.22738934
0.0043799849 0.020574942 0.22746126
0.090449437 -0.061931908 0.21851532
0.0069889524 0.02150875 0.22654386
0.005886158 0.02303024 0.22681652
0.094565406 -0.061754264 0.21845622
0.092860036 -0.060403362 0.21803561
0.009200491 0.023428606 0.22511847
0.0077301539 0.025052899 0.22581081
0.096677996 -0.059820931 0.21781714
0.094887197 -0.059028879 0.21789545
0.011227067 0.025734555 0.22498696
0.0098399352 0.027142452 0.22510456
0.10084505 -0.059669614 0.2178314
0.098961949 -0.058672145 0.21759148
0.011082259 0.029357197 0.22515993
0.10323474 -0.057891972 0.2172765
0.012119937 0.031414587 0.22597496
0.10527083 -0.056770679 0.21713331
0.013531975 0.036083393 0.22594883
0.014794413 0.038168516 0.22583568
0.015585382 0.042447172 0.22642389
0.11396725 -0.051604304 0.21652529
0.017783457 0.045178764 0.22627676
0.11618 -0.049397714 0.21637882
0.020331684 0.046624724 0.22506984
0.1197418 -0.048609804 0.21611752
0.11827417 -0.047511879 0.21623832
0.021964833 0.048875391 0.22471145
0.020522324 0.050528035 0.22603613
0.12192672 -0.04678122 0.21596965
0.12048271 -0.045282021 0.21609239
0.02416856 0.050961323 0.22466847
0.022665085 0.052655354 0.2258537
0.12419087 -0.044771738 0.21585606
0.1226536 -0.043164618 0.21594825
0.026352273 0.053328581 0.22439009
0.024763761 0.054857578 0.2255806
0.12425478 -0.040815569 0.21584922
0.028185142 0.055106301 0.2245954
0.026920246 0.056955442 0.22571893
0.12818366 -0.040315397 0.21574421
0.12653452 -0.038993306 0.21569414
0.029990243 0.057778195 0.22573063
0.02914359 0.059157781 0.22587416
0.12914902 -0.036605448 0.21551906
0.032603949 0.060056232 0.22498523
0.031176828 0.061094686 0.22569877
0.13086736 -0.034313787 0.21541066
0.0342778 0.06184981 0.22480813
0.033345725 0.063245155 0.22555611
0.13309655 -0.032282129 0.21526134
0.039654747 0.062496901 0.22318296
0.037465025 0.06380944 0.2245497
0.035298772 0.065390304 0.22553402
0.13494959 -0.029875401 0.21516539
0.13421893 -0.027617391 0.2152198
0.040451899 0.063443661 0.22318438
0.039552126 0.065459967 0.22448799
0.037539352 0.067111261 0.22539078
0.13693045 -0.027708473 0.2150729
0.13540809 -0.026190795 0.21514331
0.043881413 0.067057647 0.22390923
0.041653734 0.067748889 0.22449185
0.13861461 -0.025410052 0.21523868
0.13743916 -0.023805417 0.21501218
0.047737807 0.06713327 0.22261626
0.04578732 0.067907281 0.22314973
0.14047812 -0.023006611 0.2148331
0.13905115 -0.021414332 0.21491271
0.13824639 -0.019835021 0.21498799
0.14209458 -0.020954777 0.21468745
0.14105615 -0.019305144 0.214781
0.14037465 -0.017099554 0.21485278
0.14261723 -0.016910059 0.21483339
0.14126618 -0.015109818 0.21481508
0.14053081 -0.013091223 0.21487804
0.14281698 -0.013094766 0.21528205
0.14149307 -0.010998527 0.2148248
0.14328562 -0.0085924603 0.214993
0.14218648 -0.0063484116 0.21481547
0.14488871 -0.0064104828 0.21543781
0.14335962 -0.0042955144 0.21494097
0.1424073 -0.0021298276 0.21483779
0.14512497 -0.0021603149 0.21542339
0.14350894 -1.097098e-06 0.21484356
0.14261302 0.00222384 0.2148625
0.069360897 0.074504383 0.22110404
0.14522916 0.001977141 0.21540846
0.14343543 0.0042473348 0.2149522
0.1418637 0.0066699274 0.21496007
0.073248461 0.07492505 0.22088744
0.071247838 0.076271117 0.22171541
0.14521788 0.0061169583 0.21563683
0.14321847 0.0083345808 0.21532756
0.14208762 0.010052205 0.21497445
0.079587296 0.07390897 0.22027722
0.077549778 0.074890986 0.22074275
0.075476803 0.07618919 0.22159611
0.073346026 0.077837154 0.22252034
0.14513555 0.010424071 0.21568473
0.14340945 0.012699232 0.21520118
0.14192358 0.015237274 0.21503471
0.14072882 0.016947171 0.21514058
0.084062926 0.072882317 0.21993026
0.081799626 0.074297599 0.22058597
0.0797491 0.076056734 0.22162728
0.07775066 0.077378586 0.22228351
0.1460744 0.012545573 0.21569969
0.14507852 0.014776123 0.21579552
0.14312397 0.01676899 0.21575195
0.14126728 0.018088339 0.21511054
0.090382554 0.071509242 0.21944104
0.088082716 0.072688632 0.21969008
0.085967533 0.074165478 0.22028045
0.083907463 0.076098345 0.22136633
0.081852049 0.077789009 0.22213461
0.079957664 0.078623839 0.22229862
0.14492641 0.018909872 0.21630318
0.14330554 0.021430325 0.21586534
0.14136346 0.023352606 0.2154576
0.13956493 0.025588717 0.21536006
0.13814171 0.027542196 0.21543357
0.094666354 0.070675008 0.21918555
0.092470087 0.072066136 0.21976633
0.090195119 0.074051686 0.22041602
0.088125065 0.076023251 0.22130007
0.086016722 0.076731332 0.22166999
0.14419875 0.022530012 0.21593338
0.14250937 0.025444668 0.21608767
0.14112417 0.02738655 0.21610667
0.13906276 0.029501181 0.21581075
0.13748147 0.031797796 0.2155409
0.13578831 0.034487803 0.21567518
0.10324947 0.066748515 0.21842682
0.1012227 0.068310633 0.21863504
0.098894082 0.070116423 0.21911748
0.096663952 0.07189177 0.21971743
0.094605155 0.074078947 0.22067936
0.092076123 0.075461581 0.22131905
0.089891404 0.077007711 0.22153461
0.14082079 0.031466909 0.21645424
0.13892056 0.03377223 0.21637976
0.13668939 0.035958432 0.21618079
0.1347404 0.038157307 0.21620902
0.13294905 0.040439446 0.2161255
0.13107362 0.042757437 0.21610709
0.12928215 0.045055613 0.21626341
0.12707955 0.04739891 0.21645114
0.12592587 0.048552971 0.2165488
0.11370748 0.060565323 0.21758111
0.11184241 0.062101047 0.21773593
0.10959017 0.06414225 0.21803211
0.10733031 0.065939508 0.21834235
0.10503915 0.067710802 0.21873747
0.10290661 0.069705836 0.21929339
0.10093521 0.071851648 0.22014487
0.098681279 0.073506184 0.22068046
0.096599415 0.074941978 0.2210097
0.13658343 0.040071018 0.21692047
0.13467112 0.042308338 0.21710156
0.13263336 0.044392921 0.21688476
0.13050732 0.046506032 0.21662919
0.12837343 0.048690706 0.21665084
0.12630734 0.050827529 0.21680267
0.12423968 0.052997597 0.21699053
0.12212468 0.055068735 0.21724799
0.11983532 0.057144366 0.21749514
0.11767568 0.059258662 0.21768767
0.11557548 0.061326642 0.2179154
0.11340705 0.06347385 0.21841392
0.1113302 0.065497465 0.21890365
0.10921149 0.067564391 0.21914831
0.10687657 0.069197133 0.21925183
0.039522618 -0.051385857 0.22113799
0.037738554 -0.05008591 0.22128454
0.035470732 -0.04856316 0.22137244
0.033269316 -0.04673009 0.22130969
0.031165102 -0.044628337 0.2214545
0.029052392 -0.042514954 0.22163327
0.026939671 -0.040401593 0.22181211
0.024977082 -0.038204834 0.22208165
0.022944102 -0.035894424 0.22236677
0.020975934 -0.033726171 0.22269961
0.018974096 -0.031559855 0.22287063
0.017147586 -0.029393256 0.22302838
0.015906418 -0.027762014 0.22313701
0.048164476 -0.05623116 0.22044159
0.045885924 -0.054878507 0.22054866
0.043623127 -0.053266697 0.22048749
0.041562609 -0.051145829 0.22026724
0.039420515 -0.049087238 0.22000618
0.037189905 -0.047160346 0.21989408
0.034911703 -0.045080978 0.22008313
0.032839146 -0.042896822 0.22008553
0.030610088 -0.04086481 0.22004001
0.028340749 -0.03885965 0.22027667
0.026249057 -0.03672915 0.22064453
0.024178788 -0.034443986 0.2208401
0.022371657 -0.032156117 0.2212567
0.020346764 -0.030005267 0.22171468
0.018245889 -0.027879894 0.22202818
0.016364925 -0.02576703 0.22269399
0.014814517 -0.023232631 0.22321761
0.013362996 -0.02122654 0.22338916
0.05470534 -0.058390275 0.2199284
0.052440356 -0.057098281 0.21996549
0.050050523 -0.055450868 0.21945201
0.047857814 -0.053421214 0.21901898
0.045434341 -0.051727939 0.21901311
0.043053206 -0.049918592 0.21893224
0.040837955 -0.047999427 0.21906431
0.039335579 -0.046743505 0.2191892
0.023208784 -0.030447438 0.2205558
0.021396009 -0.028456913 0.22071084
0.019540632 -0.025944199 0.22087386
0.017893966 -0.023775382 0.22125791
0.016087793 -0.02161284 0.22187965
0.014156987 -0.019441189 0.22285335
0.012493925 -0.017208289 0.22338696
0.010965141 -0.014692757 0.22363038
0.060702741 -0.059908345 0.21946214
0.058675066 -0.058900751 0.21945719
0.056347635 -0.057522036 0.2188853
0.053889468 -0.055915445 0.21850841
0.051625386 -0.054206781 0.21824624
0.049710546 -0.052734487 0.21835154
0.016907688 -0.019989569 0.22112755
0.015480001 -0.017309949 0.22134832
0.013983466 -0.015226578 0.22194049
0.011891844 -0.013127499 0.2230362
0.010436648 -0.010927668 0.22367306
0.0095694661 -0.0087585086 0.22379042
0.064691417 -0.059920542 0.21815836
0.062518425 -0.059146456 0.21848369
0.060386315 -0.05758667 0.2179983
0.05832487 -0.05652079 0.21766697
0.016531032 -0.015293993 0.22119933
0.01533947 -0.013557225 0.22132957
0.013567022 -0.011187682 0.22177191
0.011851609 -0.008838132 0.22233643
0.0099802129 -0.0067396639 0.22323397
0.0085321246 -0.004342692 0.22380045
0.0075625782 -0.0025294735 0.22399929
0.069785811 -0.060738973 0.21876955
0.066517189 -0.058844674 0.2175477
0.064606212 -0.057841405 0.21732242
0.06227015 -0.056675799 0.21736804
0.013064469 -0.0068499329 0.22153865
0.011699576 -0.0046313554 0.22203241
0.0097795781 -0.0025067027 0.22288126
0.0081691723 -0.00057684258 0.22365178
0.073462754 -0.060960084 0.21826045
0.071077533 -0.05956047 0.21767081
0.068854831 -0.057982869 0.21694151
0.066804647 -0.05715958 0.21702166
0.012673141 -0.0027363342 0.22160624
0.011016233 -0.00074886205 0.22189882
0.0093400385 0.0013201153 0.22283816
0.0082972236 0.0043340959 0.22367302
0.077447467 -0.060945056 0.21806189
0.075255863 -0.059597578 0.21738251
0.073283926 -0.057925507 0.21661569
0.0091635529 0.0064474465 0.22292773
0.0085191829 0.0076836124 0.22307146
0.081177779 -0.06050906 0.21749479
0.079495326 -0.059578605 0.21716152
0.077354111 -0.057880372 0.21641171
0.075425565 -0.056932434 0.21637368
0.01333587 0.0072390195 0.22164842
0.011907269 0.0083084572 0.22176585
0.0099325646 0.01006586 0.22253753
0.0081546549 0.012884775 0.22409703
0.083510913 -0.0587148 0.21590701
0.081689134 -0.057840303 0.21606439
0.079576664 -0.057139315 0.21605876
0.013410023 0.010105148 0.22201446
0.011635827 0.012292279 0.22284774
0.0097827911 0.014474502 0.22379182
0.0089573637 0.016422909 0.22406919
0.090513177 -0.060177937 0.21721177
0.088687368 -0.058426064 0.21669704
0.085392192 -0.057144921 0.21564008
0.08411745 -0.056705181 0.21572036
0.012106955 0.014322754 0.2228094
0.011469213 0.016749728 0.22334182
0.010219065 0.018760696 0.22392492
0.0093325116 0.021029014 0.22408347
0.091983482 -0.059083737 0.21697415
0.090041749 -0.0576296 0.21644367
0.088089183 -0.056707621 0.21642375
0.010920368 0.019835399 0.22370198
0.0091290725 0.022011865 0.22410789
0.097042345 -0.058266222 0.21673709
0.093459308 -0.057823367 0.21664195
0.091953889 -0.056612201 0.21613316
0.014623594 0.02346064 0.2217011
0.012087375 0.026631827 0.2239275
0.1006234 -0.057838015 0.21647102
0.098705254 -0.057390567 0.21661967
0.015208576 0.024883751 0.22177914
0.012790812 0.026802646 0.22367544
0.011651754 0.028126208 0.22397414
0.10241867 -0.056712139 0.2163461
0.10109996 -0.055862151 0.21613497
0.10697708 -0.056008734 0.2160088
0.1049209 -0.055158045 0.21612847
0.10315475 -0.053704098 0.21548788
0.016881058 0.033606499 0.22216786
0.1073979 -0.055397764 0.21598274
0.10645679 -0.053948339 0.21604267
0.10485011 -0.052747764 0.21548298
0.018055554 0.035868585 0.22252144
0.017317127 0.037598819 0.22263154
0.1091582 -0.049194261 0.21390152
0.10843418 -0.048896559 0.21395887
0.020067684 0.037859194 0.22187752
0.018841356 0.039553024 0.22295256
0.11373583 -0.049603701 0.21549149
0.11115053 -0.048461221 0.21422911
0.1096458 -0.047817841 0.21387742
0.021901298 0.040171053 0.22162902
0.020557575 0.042046502 0.2228315
0.11494505 -0.048371155 0.21524148
0.11327113 -0.04685289 0.21421255
0.1124328 -0.045161739 0.21369186
0.022268588 0.044464659 0.22328939
0.021444187 0.046042506 0.22340126
0.11749762 -0.046210214 0.21517859
0.11547615 -0.044664651 0.21393286
0.11389189 -0.043618169 0.21359606
0.02436615 0.046721991 0.22269681
0.023004159 0.048217036 0.22330365
0.1193338 -0.044200443 0.2150407
0.11763004 -0.042708468 0.21400537
0.11612305 -0.041765392 0.21344496
0.02807688 0.047503613 0.22090884
0.026492458 0.048625652 0.22201777
0.025127409 0.050183475 0.22316177
0.12166011 -0.042230971 0.21502879
0.12020189 -0.041891895 0.21514198
0.029771859 0.049437508 0.22079889
0.028580356 0.050716594 0.22170924
0.027191496 0.052368693 0.2229594
0.12251823 -0.040691078 0.21497843
0.031734645 0.051543854 0.22067036
0.03072371 0.052775856 0.22141117
0.029232536 0.054104149 0.22254054
0.12650967 -0.037312314 0.21463707
0.12435545 -0.035508294 0.21312752
0.1235135 -0.034193546 0.21295764
0.034416135 0.054117873 0.22049193
0.032936875 0.054873858 0.22113711
0.030918483 0.055126112 0.22176787
0.12778592 -0.03586543 0.21432617
0.1260737 -0.034014992 0.21326756
0.12489588 -0.032732688 0.2128669
0.035877313 0.055198133 0.22039174
0.035039637 0.056734618 0.22101119
0.12994479 -0.033159465 0.21431364
0.12818891 -0.031903595 0.21315396
0.126863 -0.030594941 0.21273826
0.037290893 0.059592512 0.22208083
0.13195363 -0.031343836 0.21435329
0.13027769 -0.0298665 0.21375838
0.12874891 -0.028645679 0.2126141
0.038794924 0.061454155 0.22223525
0.038158096 0.062482052 0.2222928
0.13346335 -0.029476836 0.21425673
0.1323567 -0.027745079 0.21385948
0.13078289 -0.026215335 0.21248308
0.04344565 0.061931424 0.22000848
0.042557977 0.063122042 0.2207969
0.13512993 -0.025264043 0.21416993
0.13276282 -0.022402849 0.21236911
0.044799794 0.063371211 0.22063784
0.0438959 0.064114168 0.22087234
0.13611817 -0.023113718 0.21403302
0.13452402 -0.021325719 0.21296783
0.13322487 -0.019704726 0.2123591
0.048391227 0.063915528 0.21952863
0.047745995 0.065652631 0.22059622
0.13741089 -0.021164143 0.21403581
0.13671227 -0.019477019 0.21368106
0.13435949 -0.018131068 0.21228811
0.048581798 0.067704685 0.22155504
0.13977379 -0.018481215 0.21388242
0.13895909 -0.01712966 0.21395619
0.13758688 -0.014504183 0.21373937
0.13978438 -0.014903512 0.21391471
0.13868044 -0.01284036 0.21382555
0.13771012 -0.011371222 0.21360229
0.14014176 -0.010715527 0.21392646
0.13915853 -0.009926077 0.21400787
0.13905948 -0.0036116792 0.21280921
0.13779759 -0.0019848612 0.21217808
0.14177442 -0.0043234932 0.21386239
0.14072154 -0.0022195834 0.21348193
0.13875663 -4.7563575e-05 0.21260151
0.13755082 0.00194168 0.21223287
0.068291441 0.070590913 0.21909259
0.066863604 0.071757682 0.21924338
0.14201877 -5.5626966e-05 0.21388343
0.14080845 0.0019137207 0.21358454
0.1394607 0.0037979372 0.21321344
0.070227772 0.073022902 0.21997193
0.069017462 0.073198013 0.21997568
0.1419325 0.0038187839 0.21392569
0.14062117 0.0060528899 0.21404502
0.13937514 0.0077329893 0.21415468
0.13720289 0.011758171 0.21234989
0.079628125 0.069017038 0.21722032
0.07789591 0.070550136 0.2173883
0.075418167 0.072150409 0.2184692
0.073065415 0.07391037 0.21976604
0.07099136 0.074512698 0.21992812
0.1411196 0.0082455352 0.21402787
0.14090294 0.010652773 0.21384349
0.13881074 0.012875816 0.21258
0.1373723 0.015072206 0.21236761
0.13634679 0.017022217 0.21246307
0.083929352 0.068510227 0.21689121
0.081650116 0.06998311 0.21736842
0.079494357 0.071893975 0.21818699
0.077333249 0.07361751 0.21912059
0.075120524 0.07454741 0.21961705
0.14200071 0.012472164 0.21400051
0.14064163 0.014670346 0.21351041
0.13877641 0.017008718 0.21287808
0.13694234 0.019203959 0.21254693
0.13563697 0.021548733 0.2125584
0.090110384 0.06711252 0.21641231
0.088082962 0.068154708 0.21676342
0.085861094 0.069836773 0.21757309
0.08367461 0.071558245 0.21858147
0.081275046 0.073062874 0.21907391
0.079544947 0.074202351 0.21928029
0.14032714 0.019098369 0.21408752
0.1387611 0.021182967 0.21373263
0.13663033 0.023332454 0.21304694
0.13502038 0.025633518 0.21282114
0.13341026 0.027917493 0.21278507
0.13218467 0.02971662 0.21289419
0.096848175 0.064790376 0.21588278
0.094749197 0.066229075 0.21605419
0.092291564 0.067996614 0.21659322
0.09022627 0.069817618 0.21762574
0.087998383 0.071382649 0.21843636
0.085776538 0.072290756 0.21879269
0.14142433 0.021027349 0.21412297
0.14012086 0.02273651 0.21423708
0.13830639 0.024934422 0.21409746
0.13665079 0.027412917 0.21389952
0.13469319 0.029536553 0.21338882
0.13272674 0.03176523 0.21310987
0.13100396 0.034093931 0.21307246
0.12954862 0.036070567 0.21315168
0.10320587 0.062401541 0.21538131
0.10084228 0.064065859 0.21561657
0.098644577 0.06565506 0.21611907
0.096505716 0.067789219 0.21681745
0.094355658 0.069457039 0.21765605
0.091966525 0.070834443 0.21831252
0.13741416 0.029401036 0.21450269
0.13612457 0.031598508 0.21442972
0.13450781 0.033869043 0.21432494
0.13236324 0.035879247 0.21410397
0.1304044 0.038062256 0.21371476
0.12851134 0.040388841 0.21355006
0.12658153 0.042700723 0.21367335
0.12460532 0.044837765 0.21367869
0.12240307 0.047194004 0.21379317
0.12024681 0.04933624 0.21397553
0.11811622 0.051467456 0.2141559
0.11577281 0.053609602 0.21435234
0.11364486 0.055606328 0.21463683
0.11152415 0.057608418 0.21485293
0.10929251 0.059663493 0.21514763
0.10694784 0.061567776 0.21549234
0.1049469 0.06356281 0.21609513
0.10274217 0.065384507 0.21662094
0.10041121 0.067232244 0.21726349
0.098307781 0.068880104 0.2176659
0.096613079 0.070074603 0.2179551
0.13498569 0.035911083 0.21474598
0.13354462 0.037563682 0.21486995
0.13164577 0.039817702 0.21492252
0.12992346 0.042051941 0.21489137
0.12807444 0.044402301 0.21489979
0.12597018 0.046469718 0.21480997
0.12391323 0.048623167 0.21474579
0.12179288 0.050728921 0.21497415
0.11965957 0.052841421 0.215177
0.11752411 0.054933812 0.21543451
0.11543 0.057013258 0.21579891
0.11330237 0.059115238 0.21604259
0.11106768 0.061065182 0.21636236
0.10882884 0.062952988 0.2166957
0.10664551 0.064753965 0.21709219
0.10493819 0.06607385 0.21729037
0.12499613 0.05027613 0.21563195
0.12317365 0.052159496 0.2157868
0.12106506 0.05426877 0.21596529
0.11909712 0.056166992 0.21613121
0.11674265 0.058381513 0.21632917
0.11526664 0.059858009 0.21645413
0.037688777 -0.045694806 0.21832019
0.035843603 -0.043953806 0.21847537
0.0337325 -0.041658267 0.21865582
0.031535219 -0.039600089 0.21884049
0.029421592 -0.037740864 0.219017
0.02730828 -0.035660699 0.21919554
0.02535484 -0.033596195 0.21936196
0.024095496 -0.031910956 0.21947254
0.04775596 -0.051613182 0.21750638
0.045980271 -0.050429597 0.21765117
0.043682933 -0.048690908 0.21782514
0.041450739 -0.046668775 0.21787339
0.03923849 -0.044758148 0.21782796
0.037121169 -0.042660676 0.21774928
0.03499461 -0.040498666 0.21805505
0.032916218 -0.038367212 0.21820949
0.030739045 -0.03631774 0.2182118
0.02856119 -0.034149244 0.2182315
0.026442183 -0.031999085 0.21858284
0.02448073 -0.029901175 0.2190955
0.022521222 -0.027656322 0.21931936
0.020770082 -0.025493722 0.21969308
0.019150168 -0.023196008 0.21992595
0.056104261 -0.055783905 0.21683834
0.054498516 -0.054627813 0.21697009
0.052230585 -0.052886643 0.21701403
0.049846988 -0.051097877 0.21696413
0.047626656 -0.049078431 0.21691068
0.045392737 -0.04695487 0.21661448
0.043269724 -0.044813436 0.2163223
0.041116953 -0.042919595 0.21626297
0.038698874 -0.041012384 0.21629666
0.036458228 -0.038862668 0.21663487
0.034272574 -0.03681457 0.21669
0.032087103 -0.034749396 0.21683796
0.030154563 -0.032533132 0.21700428
0.028083902 -0.030331133 0.21732005
0.026094645 -0.028040141 0.21770814
0.024169907 -0.02581729 0.21788527
0.022120751 -0.023664633 0.21844843
0.020050993 -0.021497013 0.21920826
0.018088218 -0.019277282 0.21976542
0.016616387 -0.017315615 0.22017127
0.060276631 -0.0558488 0.21652313
0.058130894 -0.055032894 0.21665677
0.056128189 -0.05325174 0.21635354
0.05404244 -0.051234256 0.21575344
0.051796928 -0.049262606 0.21548589
0.049095746 -0.047713026 0.21543562
0.046584032 -0.045597538 0.21564455
0.04473678 -0.043799672 0.21580045
0.024624694 -0.023847669 0.21750136
0.023383269 -0.021930646 0.21761267
0.02183784 -0.01955232 0.21793708
0.019945396 -0.017184876 0.21845008
0.018016374 -0.015070703 0.21931382
0.016369091 -0.012725806 0.21977389
0.014815774 -0.010555824 0.22025488
0.06469544 -0.056421742 0.21610746
0.062389027 -0.055191725 0.21586858
0.060244393 -0.053231843 0.21532939
0.057874907 -0.051606901 0.21490489
0.05554191 -0.050026976 0.21492817
0.05382812 -0.048729111 0.21506937
0.020690389 -0.015436264 0.21787572
0.019321995 -0.013220819 0.21801807
0.017857509 -0.0108283 0.21840449
0.015898705 -0.0088569587 0.21942738
0.014225111 -0.0066426015 0.22024976
0.01321258 -0.0044641909 0.22054671
0.068930872 -0.056647405 0.21576525
0.066620946 -0.05538521 0.21536027
0.064481385 -0.053219315 0.21471672
0.06255009 -0.051802892 0.2143833
0.01872615 -0.0089693256 0.21808358
0.017157419 -0.0076069422 0.21871589
0.014998129 -0.005512035 0.21970038
0.013479659 -0.0040346477 0.22053054
0.072919197 -0.056575105 0.21547709
0.070891045 -0.055425495 0.21475393
0.068652958 -0.053485353 0.21423833
0.066362217 -0.051967908 0.21415003
0.077529788 -0.056490257 0.21512215
0.075138234 -0.055237927 0.2144454
0.072695255 -0.053871334 0.21377522
0.070707567 -0.052805353 0.21375892
0.081596732 -0.056332402 0.21474378
0.079381853 -0.055286594 0.21408501
0.077195778 -0.053895641 0.21337111
0.08341492 -0.05520115 0.21424711
0.081436209 -0.053388607 0.21316485
0.07923051 -0.052915692 0.21311522
0.085538343 -0.052817017 0.21264052
0.083445266 -0.052529674 0.21280096
0.087443851 -0.052122317 0.21250319
0.016229875 0.021001577 0.21955161
0.014929269 0.022548676 0.22066681
0.094290853 -0.052611213 0.21287173
0.092771441 -0.051049598 0.21223995
0.016179746 0.024767015 0.22059305
0.098133616 -0.051785901 0.21270315
0.096258968 -0.051254429 0.21261011
0.094203532 -0.050117362 0.21201201
0.10001542 -0.050268423 0.21241567
0.098872267 -0.049491316 0.21196449
0.10214247 -0.048328627 0.2115941
0.10102701 -0.047616847 0.21152061
0.1068607 -0.048247308 0.21308066
0.1047733 -0.047087807 0.21233092
0.10246193 -0.046484306 0.21142283
0.10897323 -0.046507329 0.21274945
0.10687155 -0.044716578 0.21147859
0.11085814 -0.044813849 0.21238504
0.10908213 -0.043049 0.21118343
0.11106743 -0.041015442 0.21082446
0.028110787 0.044245571 0.21887042
0.117392 -0.040953349 0.2123539
0.11571863 -0.039738052 0.21148844
0.11365601 -0.038682781 0.21065085
0.030335912 0.044501193 0.21826302
0.028946523 0.046393033 0.21938145
0.11771262 -0.040559478 0.21233335
0.11683086 -0.03824351 0.21130037
0.11559667 -0.036988288 0.21052015
0.032415055 0.04667066 0.21809505
0.030634338 0.048515111 0.21924902
0.030227855 0.050383568 0.21977036
0.11934596 -0.035589244 0.21070382
0.11776966 -0.034306832 0.21038119
0.03446275 0.048999749 0.2176605
0.032743335 0.050722621 0.21898967
0.031724278 0.051887885 0.2196714
0.12286465 -0.035466172 0.21199191
0.1214814 -0.034090735 0.21130666
0.11979525 -0.032362286 0.2102793
0.036664948 0.050929122 0.21746574
0.035004534 0.052842259 0.21879195
0.033505674 0.053750262 0.21955431
0.12367239 -0.031469312 0.21110836
0.12210006 -0.030002451 0.21012628
0.03855554 0.053025976 0.21729301
0.036203455 0.054047652 0.21908972
0.12495547 -0.030185277 0.2111568
0.12391933 -0.027848352 0.20999172
0.04100794 0.055176333 0.21707213
0.12811616 -0.02686768 0.21091118
0.12586316 -0.025584398 0.21010901
0.1252465 -0.023579624 0.20991634
0.045100044 0.055726487 0.21669251
0.043350305 0.056973483 0.21732466
0.04265067 0.059260182 0.21814416
0.12956545 -0.025306012 0.21117938
0.12795867 -0.023387123 0.21018356
0.12662847 -0.021951705 0.20982718
0.047145493 0.05740853 0.21655393
0.045119926 0.058389276 0.21720642
0.043223534 0.059960596 0.21873562
0.13182737 -0.022457529 0.21139447
0.13005434 -0.021235079 0.21050628
0.12848841 -0.019165069 0.20981607
0.04906458 0.05902712 0.21674757
0.048672285 0.061731026 0.21848439
0.047226559 0.063391589 0.21860874
0.13235222 -0.021332882 0.21140708
0.13190442 -0.019021001 0.21118148
0.13010466 -0.017087668 0.21040832
0.12893191 -0.015300644 0.20971493
0.051337443 0.061784737 0.21778239
0.049345344 0.062794201 0.2184435
0.047730483 0.063867487 0.21857512
0.13347681 -0.016734086 0.21136469
0.13214365 -0.014976572 0.21059017
0.13014628 -0.012940297 0.20974761
0.12929916 -0.011000915 0.20972697
0.13459305 -0.014785165 0.2112986
0.13396178 -0.012892233 0.21080916
0.13212757 -0.010735142 0.21012969
0.1309233 -0.0090707075 0.20962232
0.1345073 -0.010687512 0.21034002
0.1337321 -0.0085124224 0.20984064
0.1325596 -0.006584161 0.20952211
0.13481013 -0.0062849354 0.2095221
0.13410169 -0.0042380504 0.20969693
0.13291538 -0.0021927096 0.2095357
0.13601369 -0.0014704065 0.21073589
0.13435657 1.8827617e-05 0.21015124
0.13302861 0.0019137086 0.20965101
0.13711199 -8.3627179e-05 0.21124445
0.13618587 0.0020381361 0.21105108
0.13425654 0.004089036 0.20995416
0.1330018 0.006346033 0.20960803
0.1351348 0.0058933208 0.21020518
0.13396421 0.0082672723 0.20961852
0.13256885 0.010620924 0.20968033
0.13162726 0.012629983 0.20976973
0.08148209 0.062839516 0.2140148
0.079147853 0.063859142 0.21426956
0.077062041 0.065373421 0.21520886
0.13591602 0.01166963 0.21106714
0.13429271 0.012581451 0.21035339
0.13253814 0.014826407 0.20984687
0.13157187 0.017058056 0.2098148
0.085276306 0.062403336 0.21372466
0.083526246 0.063562319 0.21417187
0.081416965 0.065616958 0.21494186
0.079584211 0.067313865 0.21607615
0.13700569 0.012646925 0.21137007
0.13599648 0.014698053 0.21129398
0.13425697 0.016948964 0.21072669
0.13230048 0.019174218 0.21011715
0.13077268 0.021635128 0.20991737
0.12952812 0.023519015 0.2100286
0.089936174 0.062997431 0.21337877
0.08774434 0.063920446 0.21416557
0.085576013 0.065463856 0.21544075
0.083462767 0.067334548 0.21583655
0.081242412 0.068499699 0.21609095
0.13659781 0.016866015 0.21143982
0.13555758 0.018784953 0.2115359
0.13411541 0.02112975 0.21131934
0.13223043 0.023277754 0.21075061
0.13025402 0.025419772 0.21035695
0.12842955 0.027713139 0.21021609
0.1267124 0.029927138 0.21030012
0.098261952 0.058856025 0.21271269
0.096711569 0.060262516 0.2128426
0.094164602 0.062118582 0.21305183
0.092002854 0.063700564 0.21366082
0.08994697 0.065432973 0.21484381
0.087508626 0.066957153 0.21560414
0.085522078 0.068065464 0.21576421
0.13482702 0.023192808 0.21163177
0.13367158 0.024959732 0.21171291
0.1320899 0.027322464 0.21151462
0.13006507 0.029578563 0.2110711
0.12794758 0.031787671 0.2106055
0.12618773 0.034064822 0.21049234
0.12433539 0.036501795 0.21054012
0.12267409 0.038512629 0.21068394
0.11123914 0.050206076 0.21165423
0.10953252 0.051720694 0.21179692
0.10745318 0.053776655 0.21197271
0.10508007 0.055730149 0.21216969
0.10272013 0.057492461 0.21261752
0.100423 0.059329372 0.21300082
0.098236471 0.061470658 0.21346626
0.096040837 0.063455701 0.21393354
0.093916841 0.065125763 0.21459611
0.09178777 0.066613212 0.21527828
0.13252132 0.02951875 0.21186408
0.1313245 0.031277746 0.21197055
0.12972999 0.033609979 0.21185854
0.12783462 0.035969645 0.2116621
0.12581964 0.038130373 0.21147037
0.1237269 0.040141616 0.21122342
0.12172917 0.042352203 0.21122952
0.11950474 0.044575334 0.21139261
0.11734104 0.046686597 0.21156292
0.11526801 0.048800886 0.21176432
0.11305731 0.050776131 0.21188717
0.11095672 0.053026594 0.21233553
0.10889104 0.055116504 0.21263695
0.10681525 0.057181053 0.21297765
0.10473806 0.05925522 0.21359342
0.10249975 0.061349772 0.21409084
0.10021354 0.063016936 0.21452263
0.098066166 0.06422323 0.21478279
0.12863205 0.037819222 0.21223404
0.1272268 0.039728176 0.21235758
0.12523194 0.041910224 0.21238725
0.12331184 0.044123143 0.21239273
0.12128345 0.046264514 0.21231925
0.11923208 0.048380733 0.21258658
0.11715507 0.050477996 0.21282543
0.11497181 0.052470207 0.21313283
0.11278307 0.054488435 0.21347845
0.110566 0.056626052 0.21377005
0.10841393 0.058585912 0.21395038
0.10621922 0.060395494 0.2141327
0.10457049 0.061766077 0.21426965
0.043331109 -0.042819247 0.21491262
0.041773066 -0.041623458 0.21504121
0.03954412 -0.039759964 0.21522649
0.037460797 -0.037817687 0.21540153
0.035303082 -0.035717897 0.21558364
0.033137809 -0.033692531 0.21576561
0.031135814 -0.031414963 0.21593761
0.029088838 -0.029225361 0.21611221
0.027161334 -0.02715872 0.21627665
0.025453966 -0.025153968 0.21642388
0.051761903 -0.047738925 0.21423149
0.049704645 -0.046438247 0.21436824
0.047657635 -0.044600196 0.2144811
0.045434568 -0.042539768 0.21471106
0.043253586 -0.040428974 0.21459959
0.028201271 -0.025956739 0.21593073
0.026069114 -0.023640687 0.2163915
0.024450352 -0.021313708 0.21653505
0.022918925 -0.018855508 0.21667323
0.021691555 -0.017254602 0.21678056
0.060176052 -0.051398136 0.21356317
0.058461264 -0.050408371 0.21370167
0.056141488 -0.048698854 0.21382809
0.05381953 -0.046813432 0.2137506
0.051585559 -0.0446884 0.21345584
0.025169905 -0.019801201 0.21649478
0.023483131 -0.017781228 0.21664062
0.021807935 -0.015326802 0.21678963
0.020467082 -0.012709178 0.21691489
0.019332282 -0.010831369 0.21701778
0.062101934 -0.05045291 0.21342672
0.0601339 -0.04901924 0.21329865
0.058045685 -0.046969172 0.21288721
0.020273916 -0.011047738 0.21694478
0.01943728 -0.0098759523 0.21701872
0.068960883 -0.051885277 0.21289626
0.066745974 -0.050590552 0.21295367
0.06435588 -0.048915073 0.21279961
0.072921023 -0.052442476 0.21259251
0.070779599 -0.050944194 0.21250571
0.076907977 -0.052489806 0.21229143
0.074823484 -0.051066466 0.21220103
0.081190035 -0.051933654 0.21197367
0.079174086 -0.051039368 0.21188067
0.085501298 -0.051859032 0.21164928
0.083537184 -0.050906681 0.21166445
0.08748275 -0.050637037 0.21124171
0.091536142 -0.049972601 0.21121164
0.096129894 -0.049053505 0.21087369
0.097983271 -0.048052449 0.21074323
0.10014489 -0.046482146 0.21055114
0.10405657 -0.045446195 0.21030931
0.10245121 -0.044663675 0.21005894
0.10598306 -0.043564063 0.21018143
0.10452576 -0.042538948 0.20970123
0.10822466 -0.04179398 0.2100288
0.11063926 -0.040104583 0.20986232
0.11248276 -0.038001243 0.20974275
0.11484136 -0.03567471 0.20950039
0.033385303 0.045772232 0.21648107
0.11657564 -0.033646118 0.20947435
0.035305727 0.047874011 0.21635567
0.11881471 -0.031270005 0.20932746
0.11722073 -0.029826069 0.20877939
0.037555654 0.04995146 0.21620521
0.12080549 -0.029310985 0.20919544
0.11943553 -0.027719105 0.20866948
0.039428461 0.052322336 0.21608588
0.12278948 -0.026963409 0.20906754
0.12149835 -0.025558468 0.20876078
0.041682698 0.054169655 0.21593297
0.12413496 -0.025261935 0.20898174
0.12354993 -0.023398176 0.20862888
0.043244608 0.055219274 0.21582484
0.12546457 -0.021154558 0.20877269
0.12351359 -0.019186553 0.20794165
0.1270327 -0.018929388 0.20882179
0.1256478 -0.017104637 0.20817161
0.1281468 -0.016867815 0.20875677
0.12745821 -0.014795028 0.20861796
0.12850837 -0.012539682 0.2087695
0.12756859 -0.010661043 0.20831862
0.12948191 -0.0083477879 0.20843016
0.12782413 -0.006487404 0.20797856
0.13125557 -0.0060978583 0.20862189
0.12994687 -0.0043374454 0.20846248
0.13161503 -0.0020977277 0.20863175
0.12997057 -2.0783395e-05 0.20829694
0.13236839 2.3321249e-05 0.2085945
0.13159789 0.0021706633 0.20864253
0.12978473 0.0041368874 0.20813373
0.13243717 0.0041628415 0.20862754
0.13155714 0.0063396441 0.20864068
0.12982091 0.0084329555 0.20822518
0.13236101 0.0084110601 0.20867254
0.13128425 0.010216493 0.20877044
0.12989798 0.012671282 0.20845294
0.12777509 0.014853874 0.20772573
0.081491522 0.062364563 0.21300685
0.13111492 0.014772801 0.20882531
0.12977754 0.016895659 0.20870796
0.12779376 0.019045649 0.20842081
0.087559834 0.060954038 0.2125362
0.085532986 0.061461829 0.21269378
0.083148517 0.062101722 0.21287945
0.13076496 0.018719142 0.20888816
0.12952565 0.020869624 0.20900148
0.12772448 0.023110513 0.20896114
0.12562588 0.025376718 0.20868076
0.094079502 0.058698617 0.21202374
0.092019394 0.059985697 0.21219103
0.089672178 0.061453022 0.21238157
0.087698393 0.062585823 0.21254086
0.12865303 0.024955552 0.209105
0.12718777 0.027071301 0.20923504
0.12532973 0.029576071 0.2093641
0.12392748 0.031848185 0.20952503
0.12228457 0.034442097 0.20933861
0.12079213 0.036400251 0.20921843
0.10048116 0.055310421 0.21111314
0.09833619 0.057392091 0.21155515
0.096031956 0.059243731 0.21188159
0.093703367 0.061006181 0.21207348
0.091324329 0.062412441 0.21226585
0.12582265 0.031821035 0.20938183
0.12489465 0.033453513 0.20946692
0.12329059 0.035720408 0.20960881
0.12129098 0.038081497 0.20973963
0.11935592 0.040358536 0.20978463
0.11719231 0.042344444 0.20974043
0.11512227 0.04452505 0.20982288
0.11300509 0.046684913 0.21003151
0.11077034 0.048717443 0.21042447
0.10867503 0.050690018 0.21080311
0.10657699 0.052814372 0.21102704
0.10431463 0.054753888 0.21121557
0.10185011 0.056381777 0.21141642
0.09961015 0.058160752 0.21160175
0.12168729 0.04031115 0.20977208
0.12050913 0.041834325 0.20987505
0.11867381 0.043636575 0.21003008
0.11646835 0.045749463 0.2102159
0.11429385 0.047924653 0.21039997
0.11244574 0.049555697 0.21055436
