# .PCD v0.7 - Point Cloud Data file format
VERSION 0.7
FIELDS x y z
SIZE 4 4 4
TYPE F F F
COUNT 1 1 1
WIDTH 1049
HEIGHT 1
VIEWPOINT 0 0 0 1 0 0 0
POINTS 1049
DATA ascii
-0.060338926 0.067391992 0.33675227
-0.062083762 0.06712313 0.33676764
-0.064584851 0.067330889 0.33678639
-0.087668695 0.061603542 0.33700037
-0.089015447 0.060946029 0.33701456
-0.092618272 0.058952585 0.33705381
-0.093538396 0.059236113 0.33705959
-0.092910208 0.0576602 0.3370629
-0.094812043 0.057997707 0.33707619
-0.12636413 -0.03139184 0.33779794
-0.12704293 -0.030831674 0.33780044
-0.1249026 -0.03493036 0.33780494
-0.1258191 -0.033203542 0.33780318
-0.12688415 -0.031479631 0.33780259
-0.11741905 -0.047573678 0.33781186
-0.11857539 -0.046284679 0.33781433
-0.039398909 0.064235359 0.33760214
-0.04100965 0.064956129 0.33761117
-0.015735719 0.05141829 0.33748117
-0.018249117 0.05297358 0.33769289
-0.020931315 0.054342158 0.33809203
-0.023787897 0.055487089 0.33834285
-0.026523994 0.05683782 0.33868665
-0.029218342 0.057992361 0.33861706
-0.031950507 0.059168424 0.33851486
-0.034659859 0.060421381 0.33847722
-0.037368957 0.061742172 0.33832446
-0.040091425 0.062902518 0.33814931
-0.042849276 0.064020649 0.33803278
-0.045619618 0.065003671 0.33774409
-0.048429027 0.065854438 0.33766562
-0.051618163 0.066910788 0.33768547
-0.053970564 0.067966811 0.33769861
-0.055902109 0.068398185 0.33771169
-0.0070805042 0.043914776 0.338285
-0.0085580861 0.045373481 0.33799362
-0.01132514 0.046692248 0.33818373
-0.014031928 0.04796049 0.338411
-0.016710496 0.049189139 0.33863822
-0.019211683 0.050624046 0.3389861
-0.021636616 0.052351866 0.33928248
-0.024455508 0.05382007 0.33953801
-0.027168486 0.055034064 0.33955321
-0.029881462 0.056248076 0.33956844
-0.032594442 0.057462066 0.33958364
-0.035639603 0.058660369 0.33957937
-0.038340088 0.059831426 0.3394503
-0.041122992 0.060926411 0.33945939
-0.043939486 0.06203318 0.33925483
-0.046857662 0.062923387 0.33905852
-0.049613249 0.06390968 0.33876348
-0.052383192 0.065000325 0.33828762
-0.05506704 0.06614776 0.33782682
-0.057705224 0.067157596 0.33773264
-0.059936173 0.067303494 0.33774957
-0.0028833267 0.03824516 0.33844811
-0.0048130611 0.039382126 0.33845749
-0.0072068144 0.041242503 0.33855635
-0.0095471349 0.04283059 0.33911988
-0.011923374 0.044637952 0.33948651
-0.01459614 0.046448026 0.33949825
-0.01713776 0.047614966 0.33951235
-0.050842948 0.06230668 0.3397035
-0.053442918 0.062863991 0.33945736
-0.056262467 0.063649192 0.33905023
-0.058948733 0.064833537 0.33878094
-0.061637718 0.065689616 0.33826661
-0.064461358 0.066168159 0.33789423
-0.066895053 0.066873178 0.33780724
-0.00036461558 0.034876365 0.33763
-0.0026037642 0.036437105 0.33823934
-0.0053017661 0.037570886 0.33888572
-0.0075053098 0.039323814 0.33941677
-0.0092256842 0.040736884 0.33948556
-0.057664815 0.06243965 0.33975717
-0.0602207 0.062820382 0.3397755
-0.062881894 0.063473098 0.33950457
-0.06572891 0.064573258 0.33886614
-0.068531275 0.065692976 0.33840051
-0.071110673 0.065853491 0.33804625
0.0013690721 0.031148151 0.33805352
-0.0003344221 0.032386553 0.33817294
-0.0042214105 0.034741342 0.33947721
-0.0050453814 0.035561264 0.33947948
-0.064600915 0.062341534 0.33981293
-0.066955209 0.062448766 0.33981389
-0.069625668 0.063005313 0.33923596
-0.072465591 0.064338386 0.33860835
0.0029741032 0.027142975 0.33881694
0.00084230152 0.028655935 0.33919907
-0.0006985995 0.030381706 0.33947214
-0.070918992 0.061508384 0.33986765
-0.073740572 0.061960731 0.33949476
-0.07643012 0.062662974 0.3389225
0.0045796968 0.023184638 0.33895129
0.0021347057 0.024473827 0.33948064
0.00074931502 0.026097734 0.33948311
-0.077534132 0.06101374 0.33965367
-0.080419801 0.061658714 0.33808765
-0.083084047 0.06234362 0.33795992
0.0060642445 0.019262169 0.33900669
0.0037908743 0.020784184 0.33946928
0.0023091151 0.022306405 0.33949065
-0.082201339 0.060028695 0.33796519
-0.084359616 0.059835996 0.33875471
-0.086889766 0.060646445 0.33812979
-0.089437447 0.060689073 0.33801934
0.0075993971 0.015306506 0.33904833
0.0053483732 0.016649432 0.3394962
-0.085792236 0.058460366 0.3390021
-0.088326633 0.058494668 0.33883926
-0.09080027 0.059178174 0.33824199
-0.09289632 0.05956969 0.33805278
0.0088559147 0.011192592 0.33857289
0.0068235938 0.012990726 0.33934852
-0.089642584 0.056097485 0.34001294
-0.091469899 0.057640336 0.33836412
-0.096012995 0.057004791 0.33809116
0.0088048205 0.0089066736 0.33850941
-0.09697935 0.055483058 0.3381069
-0.098423652 0.055792019 0.33811679
0.0096161254 0.0045907297 0.33921447
-0.0983271 0.052970413 0.3388581
-0.10015175 0.053469948 0.33869505
0.010917568 0.00068873214 0.33897573
0.0090678521 0.0017679991 0.33954489
-0.099270433 0.050134726 0.34015331
-0.10134006 0.050965771 0.33960053
0.009892296 -0.0020110933 0.33949432
0.0085122231 -0.00062139076 0.33956188
-0.10069621 0.047412943 0.34017897
-0.10250925 0.04820849 0.34018925
0.011233292 -0.0059467219 0.3391782
0.0096424427 -0.0045642043 0.33957362
-0.10413709 0.046261542 0.3400842
0.010448317 -0.0088437917 0.33958974
-0.10572387 0.04460844 0.33923376
0.010132327 -0.011151031 0.33960441
-0.10957871 0.04161974 0.33924308
-0.11107106 0.039690077 0.33930221
-0.11480939 0.037457578 0.33873716
0.0084304865 -0.021140426 0.33967048
-0.11657081 0.034422658 0.33877376
0.0071643726 -0.024001021 0.33969563
-0.11696142 0.031456422 0.33981767
0.0077076787 -0.027617659 0.33971033
0.0061552273 -0.026635934 0.33971754
-0.11846574 0.029106982 0.34009737
-0.12057941 0.02994094 0.33891255
0.0067846002 -0.030317083 0.3397319
0.0048658578 -0.029500902 0.3397429
-0.11962693 0.026304372 0.34001768
-0.12179488 0.027171716 0.33897719
0.005719346 -0.033152975 0.33971682
0.0036679849 -0.032290418 0.33976713
-0.12104765 0.023405168 0.3401795
-0.12309203 0.024411157 0.33913684
0.0020491765 -0.0346293 0.33979231
-0.12206388 0.02107374 0.33987367
-0.12428904 0.021659467 0.33888009
0.0029849519 -0.038475294 0.33961904
0.0011660564 -0.03741527 0.33981401
-0.12396514 0.018505398 0.3386592
-0.12556055 0.018809129 0.33860356
-0.00012508687 -0.040716808 0.33984166
-0.12512924 0.015208718 0.33925357
-0.12663755 0.016210552 0.33866566
-0.0016482209 -0.043144897 0.33986658
-0.12620024 0.012996182 0.33934098
-0.12786703 0.013411136 0.33868912
-0.0027450649 -0.045958355 0.33989012
-0.12482028 0.0076547274 0.34058031
-0.12688419 0.0093092052 0.33940193
-0.12917364 0.010822169 0.33860812
-0.0043282234 -0.048552345 0.33989486
-0.0066985199 -0.04867667 0.33993593
-0.1254205 0.0065731686 0.34053817
-0.12767963 0.0067699822 0.3393414
-0.12997663 0.0081097092 0.33861902
-0.0056421813 -0.051179387 0.33988243
-0.0076037804 -0.050300062 0.33995163
-0.12760532 0.0021288013 0.33963156
-0.12906866 0.0039927317 0.33922634
-0.0071957149 -0.053561103 0.33963653
-0.0091021387 -0.053054437 0.3399781
-0.12624741 -0.0015709107 0.34064028
-0.12768728 2.0973384e-06 0.34026527
-0.0087586213 -0.056182798 0.33994925
-0.01075632 -0.055418473 0.3400037
-0.0125203 -0.055229489 0.34001675
-0.01009251 -0.058432389 0.34001428
-0.012006081 -0.058049746 0.34002748
-0.01431071 -0.058200017 0.34004667
-0.013688722 -0.060358409 0.3399055
-0.015849285 -0.05974533 0.34005594
-0.017998133 -0.059779 0.34008434
-0.017198818 -0.061882794 0.33951423
-0.019606976 -0.061428044 0.3401058
-0.021222511 -0.063949175 0.33985159
-0.023700826 -0.063739464 0.34015056
-0.022708304 -0.066196486 0.33933127
-0.025205251 -0.065559685 0.33997771
-0.027561393 -0.065454155 0.34019038
-0.026591254 -0.067939132 0.33940715
-0.029156841 -0.067242309 0.3401435
-0.031553533 -0.067203015 0.34023136
-0.12536809 -0.024448838 0.34070361
-0.030415969 -0.069518402 0.33949107
-0.033153746 -0.068688162 0.34011927
-0.035974972 -0.068090655 0.34027126
-0.12436795 -0.02823475 0.34064314
-0.12637247 -0.026801672 0.33998871
-0.034294542 -0.070975959 0.33934093
-0.037062831 -0.069926172 0.3398366
-0.039053362 -0.069509305 0.34030324
-0.1211372 -0.03381433 0.34076923
-0.12279921 -0.032238904 0.34047219
-0.12478588 -0.03071972 0.33979693
-0.1271227 -0.029267531 0.33906168
-0.038346738 -0.072438315 0.33937898
-0.041063905 -0.071674511 0.34002951
-0.043954775 -0.071209103 0.34035122
-0.045980766 -0.070701651 0.34036472
-0.11857101 -0.037637986 0.34076887
-0.12072612 -0.035995595 0.34030682
-0.12314325 -0.03465075 0.33945099
-0.12511691 -0.033221655 0.33896723
-0.039993778 -0.074071616 0.33933473
-0.04243461 -0.073936477 0.33935332
-0.044988662 -0.072831631 0.33957666
-0.04685317 -0.071613714 0.34037641
-0.11501905 -0.043064408 0.34076914
-0.11694929 -0.041328598 0.34071085
-0.11910632 -0.039850261 0.3403042
-0.12169098 -0.038555995 0.33940789
-0.12403408 -0.03719892 0.33882341
-0.12549467 -0.03572274 0.3388139
-0.046369765 -0.075243421 0.33893481
-0.049280468 -0.074662648 0.33953667
-0.051748365 -0.073566623 0.34012088
-0.054471612 -0.072697595 0.3403911
-0.05680491 -0.072066426 0.3404581
-0.11270475 -0.046772595 0.3406952
-0.11481019 -0.045188624 0.34030244
-0.11750156 -0.043739904 0.33985779
-0.12011713 -0.042462621 0.33916417
-0.12154447 -0.040729024 0.33896258
-0.049992152 -0.075884357 0.33942389
-0.053320952 -0.075344406 0.33944759
-0.05562751 -0.074747883 0.3395659
-0.058322299 -0.073602676 0.34005091
-0.061017253 -0.072968274 0.34047818
-0.064136811 -0.072345614 0.34051797
-0.1059519 -0.053410284 0.34075138
-0.10814047 -0.052068431 0.34072092
-0.11067585 -0.05051567 0.34044361
-0.11315286 -0.049036525 0.34004134
-0.1159691 -0.04784213 0.33927321
-0.11818758 -0.045941461 0.33884588
-0.12041776 -0.044446263 0.33881935
-0.059559714 -0.075904638 0.33931711
-0.062384773 -0.07496421 0.33957309
-0.065210991 -0.07368046 0.33997518
-0.067958497 -0.07265012 0.34013024
-0.070722781 -0.071803384 0.34038681
-0.073553279 -0.070887119 0.34058526
-0.076342992 -0.070031211 0.34060296
-0.079322502 -0.068806447 0.34062031
-0.080814645 -0.068138748 0.34062868
-0.096421391 -0.0609922 0.34071535
-0.098525465 -0.059794825 0.34072584
-0.10124534 -0.058409005 0.340633
-0.10374079 -0.056927875 0.34052223
-0.10622685 -0.055403046 0.34032857
-0.10887229 -0.054096196 0.33996716
-0.111614 -0.052975215 0.33930203
-0.11398391 -0.051434625 0.33896345
-0.11607942 -0.049988739 0.33881402
-0.069120049 -0.075008497 0.33932152
-0.071897022 -0.074016705 0.33932224
-0.074558794 -0.072877862 0.33972609
-0.077276908 -0.07166937 0.34017554
-0.080076672 -0.070462115 0.34035045
-0.08281327 -0.069292851 0.34038976
-0.085583068 -0.068131797 0.34039387
-0.088280365 -0.066886932 0.34033018
-0.091043457 -0.065481894 0.34028959
-0.093794085 -0.064214885 0.34029475
-0.096481875 -0.062984511 0.34025955
-0.099279672 -0.061702237 0.33996078
-0.10192913 -0.060461584 0.33966181
-0.10462326 -0.059212554 0.33961108
-0.10698287 -0.05761534 0.33970886
-0.018465634 0.048423953 0.34051874
-0.020320415 0.049629755 0.34052712
-0.022552785 0.051202867 0.34063354
-0.02504468 0.05259373 0.34089106
-0.027761813 0.053810623 0.34093949
-0.030494317 0.055033378 0.34095487
-0.033226803 0.056256156 0.34097019
-0.035987653 0.057314772 0.34088564
-0.038880333 0.058399271 0.34079283
-0.041619312 0.05947721 0.34064505
-0.044361427 0.060577232 0.34066102
-0.047040842 0.061512992 0.34067741
-0.049010061 0.062092043 0.34069008
-0.010836858 0.042064331 0.34049138
-0.012915097 0.043709517 0.34057635
-0.015222348 0.045236882 0.34083265
-0.017925927 0.046383712 0.34124225
-0.02059862 0.047626328 0.34169737
-0.023186339 0.049007758 0.34200799
-0.025946423 0.050397497 0.34202459
-0.028723039 0.051546622 0.34221423
-0.031411231 0.05289308 0.3424603
-0.034100957 0.05430406 0.34242737
-0.036850177 0.055512771 0.342253
-0.039728656 0.056635514 0.34225175
-0.04252563 0.057525761 0.34201086
-0.045273986 0.058670487 0.34174213
-0.048019316 0.059886228 0.34162253
-0.050690021 0.060923297 0.34113529
-0.053630434 0.061492685 0.34077352
-0.056027163 0.062137395 0.34074578
-0.0064713401 0.036711738 0.34048483
-0.0084850881 0.038361683 0.34063742
-0.010851122 0.039966766 0.34135473
-0.013507348 0.04125629 0.34198448
-0.015950235 0.042907584 0.34219894
-0.018483145 0.044473261 0.34248725
-0.021068789 0.045858201 0.34255308
-0.022781296 0.046815984 0.34256166
-0.043792386 0.056090869 0.34268022
-0.046302415 0.057076689 0.34269509
-0.049315445 0.057915747 0.34271476
-0.051942769 0.058697108 0.3424924
-0.054631311 0.059643988 0.34204459
-0.057388011 0.060725424 0.3412551
-0.060087487 0.061508335 0.340886
-0.062990412 0.062047064 0.34080166
-0.0028996968 0.031638853 0.34048307
-0.0045616678 0.033166945 0.34065494
-0.006652128 0.034806471 0.34142098
-0.0090103196 0.036498252 0.3420063
-0.011399702 0.037979737 0.34246498
-0.013460129 0.039243128 0.34252727
-0.055822246 0.058252562 0.34276468
-0.058841396 0.058636963 0.3426986
-0.061344564 0.05932188 0.34225616
-0.064096041 0.06058665 0.34135538
-0.066695161 0.061194122 0.34086752
-0.069033831 0.061232682 0.34085411
-0.0014122664 0.02784666 0.34149122
-0.0029223035 0.029614117 0.34134012
-0.0051160539 0.031012181 0.34200892
-0.0068302737 0.032530732 0.34250978
-0.060342856 0.056926809 0.34280762
-0.062393863 0.0574232 0.34279713
-0.065255865 0.058253467 0.34252954
-0.06808421 0.059045311 0.34213561
-0.070748128 0.060092904 0.34141633
-0.073525712 0.060618818 0.34100181
-0.075572051 0.060885221 0.34090802
0.0011381054 0.023431063 0.3404941
-0.001740369 0.025722802 0.34198657
-0.0033471987 0.027130131 0.34236959
-0.0052686138 0.028892092 0.34251651
-0.069473974 0.057154305 0.3428793
-0.072052255 0.057662103 0.34252781
-0.074755795 0.05874259 0.34186119
-0.077163935 0.059599545 0.34124637
0.0026751035 0.020053126 0.34072879
0.00054534245 0.021737915 0.34151712
-0.001686679 0.023198962 0.34243611
-0.0031883011 0.024819255 0.34252137
-0.07345634 0.056050315 0.34291673
-0.07591404 0.056900509 0.34278294
-0.078482784 0.057779364 0.34200722
-0.08170379 0.057723355 0.34130684
0.0040877084 0.016323036 0.34063566
0.0020794079 0.017840575 0.34149835
-0.00014994107 0.01903186 0.34243816
-0.083335996 0.056113623 0.34202579
-0.084725536 0.056280259 0.34195253
0.0050327838 0.01265654 0.34093645
0.0035799486 0.013870367 0.34140906
0.0012651916 0.01521104 0.34234476
-0.00030435994 0.016666085 0.34254131
-0.082534604 0.051864102 0.34301102
-0.084046446 0.052819446 0.34301823
-0.086423263 0.054077633 0.34242573
-0.089755237 0.054821014 0.34105292
0.0042570345 0.009742517 0.34238237
0.0027855393 0.011136444 0.34237483
0.0013796494 0.012853262 0.34254795
-0.085199751 0.050791454 0.34269375
-0.087909058 0.051712781 0.34203312
-0.090646654 0.052716143 0.34126765
-0.092771344 0.052804712 0.34108755
0.0080580479 0.0038229874 0.34054217
0.0057952553 0.0048651034 0.34122142
0.003472588 0.0074112699 0.34254006
0.00260496 0.0084464345 0.34256136
-0.089635238 0.05054453 0.34207451
-0.092150971 0.050302625 0.3416352
-0.094498478 0.050783347 0.34118247
-0.096938394 0.050807007 0.34113124
0.0075701303 0.0020467492 0.34069186
0.0055447165 0.003302485 0.34138978
0.0039900504 0.0047903331 0.34156951
-0.095242485 0.049731452 0.34137344
-0.097929366 0.050646167 0.34113997
0.0086174998 -0.0029737712 0.34057346
0.0069331643 0.00020003598 0.34093857
0.0052888943 0.0011375939 0.34157842
-0.097222 0.044859949 0.34316495
-0.10118166 0.046224833 0.34118912
0.009503671 -0.0064798612 0.34058487
0.0083969263 -0.0048438017 0.3405852
-0.098345727 0.043810252 0.34307075
-0.10107984 0.045492753 0.34139219
-0.10273375 0.046098553 0.34120217
0.009096927 -0.0085632578 0.34059903
0.0078433361 -0.0076519763 0.34092173
0.010077071 -0.01308284 0.34061506
0.0085460339 -0.011464339 0.34066185
0.0065880558 -0.010378908 0.34145668
-0.1059104 0.039153103 0.34272248
0.009657599 -0.01369525 0.34062159
0.0079670139 -0.013333675 0.3406575
0.0062988065 -0.012301114 0.34135535
-0.10761952 0.037270784 0.34232593
-0.1095023 0.037346091 0.3423022
0.0045832964 -0.017684605 0.34268311
0.0040452434 -0.017113104 0.34268442
-0.1087338 0.034643747 0.34285778
-0.11079815 0.03524616 0.34190688
0.0065254322 -0.021704819 0.34075537
0.0045937402 -0.019783054 0.34222436
0.0034729324 -0.018633153 0.34269699
-0.11022869 0.032092407 0.34301433
-0.11250989 0.032747023 0.3419483
0.0058159865 -0.023288112 0.34093907
0.0038476647 -0.022335593 0.34211561
0.001993228 -0.022192109 0.34272745
-0.11417832 0.030315407 0.34141141
-0.11594952 0.030525483 0.34138939
0.0047097793 -0.026443813 0.34085515
0.0026017134 -0.025190644 0.3422738
0.001075652 -0.024110049 0.34274489
-0.11551342 0.027516447 0.34189075
-0.11742012 0.028287552 0.34141293
0.0034930189 -0.028882582 0.34089562
0.0015388958 -0.027893238 0.34208027
0.00014657178 -0.026861407 0.34276676
-0.11484492 0.023669161 0.34341675
-0.11650438 0.024812005 0.34244764
-0.11849412 0.0255966 0.34143558
0.0024828129 -0.031755786 0.34077388
0.0016424314 -0.030511618 0.34077394
-0.1160423 0.021390848 0.3434383
-0.11769993 0.022099145 0.34264135
-0.11979076 0.022878718 0.34152696
0.0013528292 -0.033109702 0.34078991
-0.11730458 0.018800132 0.34346199
-0.11884663 0.019346599 0.34282002
-0.12066634 0.020329978 0.34182754
-0.0003661185 -0.038059127 0.34090105
-0.0027512372 -0.036791064 0.34259728
-0.0042708367 -0.036487825 0.34285259
-0.11874552 0.015369307 0.34349152
-0.12000569 0.016516622 0.34297034
-0.12098685 0.018345695 0.34249365
-0.0012491588 -0.039785367 0.34114453
-0.003539907 -0.038917914 0.3423596
-0.0051387213 -0.038304344 0.34286904
-0.11922965 0.01361503 0.34350458
-0.120989 0.013883584 0.34297663
-0.0030064504 -0.042766292 0.34104931
-0.0047533042 -0.041651532 0.34235737
-0.0064287558 -0.040910356 0.34289306
-0.12290227 0.010828923 0.34179837
-0.0039882604 -0.045285441 0.34089652
-0.0059379479 -0.044289619 0.3416397
-0.0075719366 -0.043372937 0.34291509
-0.12411164 0.0087706782 0.34156889
-0.12530035 0.0089995349 0.34157711
-0.0051897177 -0.047366384 0.34091702
-0.0071829138 -0.046979845 0.34142613
-0.0091112182 -0.04614614 0.34294209
-0.12280545 0.0041295197 0.34345812
-0.12426706 0.0045789089 0.34275892
-0.0085256286 -0.05043273 0.34095976
-0.011960762 -0.049362771 0.34298155
-0.12369502 0.0023912387 0.34275818
-0.1247204 0.0029818434 0.34260422
-0.010175402 -0.052131742 0.34106389
-0.01236556 -0.051352341 0.34227574
-0.014314678 -0.050759841 0.34300777
-0.1228769 -0.0012180777 0.34361172
-0.12477452 -0.0011730189 0.34262651
-0.011535485 -0.054033943 0.34100267
-0.013343663 -0.054008946 0.34143877
-0.015376879 -0.052384727 0.34302476
-0.1264344 -0.0026272545 0.34164736
-0.01319254 -0.057205413 0.34103256
-0.014747388 -0.056925707 0.34104365
-0.017677244 -0.056600574 0.34140882
-0.016530069 -0.058494173 0.34106591
-0.018845055 -0.058209799 0.34127375
-0.020552142 -0.057845518 0.34159458
-0.020313011 -0.060325775 0.34110567
-0.021403408 -0.059687365 0.341111
-0.027281249 -0.061929677 0.34243056
-0.029221566 -0.061375372 0.34318227
-0.02569638 -0.064139307 0.34116864
-0.028018588 -0.063935064 0.34166396
-0.03070721 -0.062936343 0.34272578
-0.032977317 -0.062547825 0.34321845
-0.12200794 -0.022175398 0.342715
-0.12361182 -0.021253556 0.34269068
-0.029594513 -0.065893643 0.34120888
-0.031850677 -0.065489508 0.34163189
-0.034073126 -0.064931341 0.3421354
-0.12362742 -0.024795894 0.34174162
-0.12422177 -0.02373074 0.34182966
-0.033243924 -0.06719777 0.34124482
-0.035801362 -0.066768534 0.34126315
-0.037817955 -0.066202387 0.34127602
-0.04227018 -0.065730967 0.3433091
-0.11642309 -0.032289475 0.34372377
-0.118478 -0.03121414 0.34371138
-0.12090059 -0.02941196 0.34284437
-0.12343715 -0.027770095 0.3417559
-0.12474454 -0.026043396 0.34175709
-0.037670139 -0.068018995 0.34128442
-0.039986458 -0.06869033 0.34152871
-0.042751361 -0.067614913 0.3429828
-0.045304418 -0.06707418 0.34334049
-0.047493894 -0.066810988 0.34335643
-0.11440503 -0.036135662 0.34372804
-0.11661183 -0.034510057 0.34344617
-0.11919839 -0.033135228 0.342823
-0.12161697 -0.031681262 0.34208202
-0.12329404 -0.029922038 0.34176597
-0.041301087 -0.070354775 0.34132558
-0.043815497 -0.069905765 0.34195441
-0.046634715 -0.06904418 0.34276468
-0.049322318 -0.068141803 0.34326968
-0.051976267 -0.067764372 0.34339714
-0.11087985 -0.041423507 0.34372768
-0.11258949 -0.03988608 0.34354514
-0.11498559 -0.038368288 0.34293142
-0.11741453 -0.036885336 0.3421177
-0.11969444 -0.035158046 0.34183002
-0.12138282 -0.033941384 0.34177187
-0.04808617 -0.071162514 0.34148404
-0.050574075 -0.070471682 0.34199101
-0.053309143 -0.069298357 0.34287041
-0.056020368 -0.068636119 0.34325594
-0.058723927 -0.067955971 0.34345198
-0.060844336 -0.067451514 0.34346613
-0.10629135 -0.046902206 0.34371999
-0.10838881 -0.045451164 0.34372923
-0.11093684 -0.043761019 0.3434042
-0.11341661 -0.042425107 0.34255937
-0.11570565 -0.04085977 0.34194297
-0.11735953 -0.039092872 0.34176695
-0.049498022 -0.07287316 0.34140417
-0.05156238 -0.072263636 0.34141737
-0.054253828 -0.07136865 0.34173
-0.05714814 -0.070725717 0.34209436
-0.059805054 -0.069693662 0.34278613
-0.062573247 -0.068676688 0.34324938
-0.065358587 -0.067907646 0.34345582
-0.067725174 -0.067254551 0.3435199
-0.10177707 -0.052001186 0.34371087
-0.10418209 -0.050380439 0.34367993
-0.10646956 -0.048870869 0.34336901
-0.10925332 -0.047599155 0.34286857
-0.11161183 -0.046141393 0.34222052
-0.1137764 -0.044368152 0.34176615
-0.058758654 -0.07211151 0.34147391
-0.0612658 -0.071701266 0.34168172
-0.063956194 -0.071014337 0.34194651
-0.066586345 -0.069749624 0.34236094
-0.069304407 -0.068730175 0.34293273
-0.072142847 -0.067809604 0.3432785
-0.074993156 -0.066831738 0.3433395
-0.07769163 -0.06575533 0.34351829
-0.080679916 -0.064540058 0.34360889
-0.083455004 -0.063286841 0.34362438
-0.086210571 -0.062053729 0.34363982
-0.089052789 -0.060625236 0.34365499
-0.09168639 -0.059340008 0.34356394
-0.094319463 -0.058067657 0.34354064
-0.097044893 -0.056706097 0.34344801
-0.099671938 -0.055182125 0.34331104
-0.1022726 -0.053994995 0.34289327
-0.10478062 -0.05256068 0.34256396
-0.10736296 -0.051010884 0.34212789
-0.10966729 -0.049616326 0.34191102
-0.11139802 -0.048447236 0.34176868
-0.065710738 -0.072164677 0.34152955
-0.067771681 -0.071406104 0.34154198
-0.070553884 -0.070440739 0.34167019
-0.073251158 -0.069637932 0.34186855
-0.076103643 -0.068756193 0.34203893
-0.078778543 -0.067541443 0.34232071
-0.081518047 -0.066399954 0.34257504
-0.084248304 -0.065164305 0.3425414
-0.086988345 -0.063920557 0.34253424
-0.089712769 -0.062664241 0.3424724
-0.092415035 -0.06143523 0.34230074
-0.095145009 -0.060190491 0.34225222
-0.097774476 -0.058786873 0.34213293
-0.10034797 -0.057356324 0.34199926
-0.10282345 -0.055942513 0.34179693
-0.10467175 -0.054812174 0.34174863
-0.082714282 -0.067946032 0.34164283
-0.085127734 -0.066912793 0.34165657
-0.087854907 -0.065692425 0.34167188
-0.090334482 -0.064528309 0.3416855
-0.093248256 -0.063115351 0.34170133
-0.095157288 -0.062261097 0.34171203
-0.024308562 0.047921218 0.34356806
-0.0265972 0.049026579 0.34358048
-0.029499246 0.050182719 0.3435975
-0.032210559 0.051504385 0.34361213
-0.034706026 0.052818846 0.34362519
-0.037407711 0.05405404 0.34364021
-0.040037364 0.05514513 0.34365541
-0.042063542 0.055721898 0.34366843
-0.015165729 0.040610585 0.34353372
-0.01690883 0.041850135 0.34354115
-0.019357031 0.043378752 0.34356785
-0.022041189 0.04473744 0.34372044
-0.024610091 0.046111688 0.34396291
-0.027318191 0.047328558 0.34423506
-0.030106531 0.048554629 0.34412575
-0.032842629 0.049737435 0.34416324
-0.035530739 0.051032249 0.34435809
-0.038330957 0.052286144 0.34453791
-0.041107524 0.053512238 0.34438238
-0.043786258 0.054620199 0.34405345
-0.046588928 0.055655923 0.34401515
-0.049247172 0.056536209 0.34381062
-0.051978733 0.057237178 0.34373945
-0.0082723973 0.034284692 0.34351212
-0.009928789 0.035374951 0.34351957
-0.012363195 0.036867261 0.34367388
-0.014879111 0.038444504 0.34393108
-0.017552124 0.039786834 0.34418413
-0.020316625 0.041089576 0.34468222
-0.023058511 0.042282842 0.3451685
-0.025589976 0.043606825 0.34542021
-0.02823237 0.045178954 0.34559876
-0.031051241 0.046517719 0.34546518
-0.033743389 0.04782417 0.34560797
-0.036455423 0.049130071 0.34565854
-0.039219305 0.050147362 0.34567505
-0.042025521 0.051307663 0.34555241
-0.044888988 0.052364711 0.34535336
-0.047656707 0.053373039 0.34535867
-0.050419956 0.054546218 0.34498686
-0.053213045 0.055745363 0.3444207
-0.056007907 0.056813687 0.34404978
-0.058380574 0.057507668 0.3437891
-0.006713348 0.030401208 0.34352013
-0.0082444046 0.032116469 0.34355888
-0.010606673 0.033325944 0.34404069
-0.013206206 0.034509879 0.34482896
-0.015834266 0.035879575 0.34529653
-0.018239902 0.03783831 0.34557289
-0.021117657 0.039433915 0.3455874
-0.023460157 0.040520892 0.34560037
-0.049316891 0.05222049 0.34574476
-0.051553097 0.052697629 0.34576002
-0.054337375 0.053305976 0.34559363
-0.057243183 0.054253168 0.34526435
-0.059940815 0.055346739 0.34458327
-0.062736034 0.05607032 0.34428847
-0.065335438 0.056770273 0.34396261
-0.0045879623 0.026463807 0.34360087
-0.0065465947 0.028157532 0.3440305
-0.0091159595 0.029420707 0.34476128
-0.01145765 0.031020354 0.34538797
-0.013763785 0.032629732 0.34556463
-0.015591379 0.033770476 0.34557322
-0.058585498 0.052897617 0.34581503
-0.061146822 0.053388119 0.3458142
-0.06391824 0.053919803 0.34558031
-0.066500053 0.055102076 0.34474006
-0.069198512 0.055919245 0.34408346
-0.07160534 0.056100998 0.34390178
-0.002855204 0.022577453 0.34362817
-0.0048379228 0.024252698 0.34422433
-0.0075932676 0.025430944 0.34506264
-0.0095883198 0.026702613 0.34556255
-0.065330595 0.052425176 0.34587121
-0.067188136 0.053437952 0.34538066
-0.069954969 0.054760404 0.34459573
-0.071910575 0.055697381 0.34390631
-0.0014909045 0.018817976 0.34362525
-0.0032544159 0.020251378 0.34451595
-0.0058396375 0.021610141 0.34522966
-0.0080675632 0.023195643 0.34551337
8.6028362e-05 0.014470145 0.34364358
-0.0019047153 0.016208204 0.34451649
-0.0040206993 0.017953657 0.34538871
-0.0057224547 0.0194229 0.34557009
0.0014023634 0.010601228 0.34372637
-0.00033348938 0.012249733 0.34456465
-0.0023789092 0.013744431 0.34546214
0.0010149009 0.0084716352 0.34410965
-0.0013342781 0.0095994789 0.34536713
-0.0025585224 0.011482105 0.34558669
-0.00038532331 0.0055406587 0.34560061
-0.0014053744 0.0073977388 0.345599
-0.00034977868 0.003508162 0.34561104
-0.0942614 0.044111252 0.34514531
-0.096216939 0.044837885 0.34415701
0.0025271808 -0.0026732543 0.34473383
0.00055611809 -0.0018557096 0.34550384
-0.097839639 0.042874079 0.34418032
0.0031315256 -0.0065593291 0.34463623
0.0019723182 -0.0050087832 0.34487593
0.00020537735 -0.0035377657 0.3456437
0.0023970723 -0.0088735772 0.34481341
0.0012844228 -0.0081145791 0.34536126
0.0013788409 -0.011600447 0.34551305
0.0003206234 -0.010820558 0.3456811
0.0029173677 -0.015933733 0.34368718
0.0011246952 -0.01445032 0.34460896
-0.00022176374 -0.012568931 0.3456946
0.0020591998 -0.018545285 0.34389526
-0.00030520814 -0.017306708 0.34534934
0.0011648817 -0.020930193 0.34415212
-0.0010624628 -0.019981477 0.34551293
-0.0022387633 -0.02258132 0.34576336
-0.11170281 0.024678316 0.34538653
-0.00011251844 -0.028401677 0.34377697
-0.0018049232 -0.027331099 0.34478483
-0.003487664 -0.025838878 0.34579045
-0.11112322 0.022476245 0.34583423
-0.11343233 0.023162361 0.34485564
-0.00036523142 -0.02884265 0.34378132
-0.0027961507 -0.028914012 0.34491873
-0.0043732375 -0.028261665 0.34581026
-0.11240131 0.019752093 0.34588984
-0.11480696 0.020821951 0.34490359
-0.11671853 0.020563871 0.34444806
-0.0043530436 -0.032244332 0.34537888
-0.0060971426 -0.031254761 0.34583959
-0.113828 0.016983651 0.34621659
-0.11610597 0.01805073 0.34504887
-0.11758605 0.018625014 0.34446523
-0.0032717409 -0.035487238 0.34383944
-0.0050182268 -0.034733191 0.34464937
-0.0071871821 -0.033844426 0.34582913
-0.114837 0.014229157 0.34628552
-0.11727146 0.015172964 0.34511998
-0.11868559 0.016291346 0.34448621
-0.0066770958 -0.037725221 0.34473544
-0.008563308 -0.036846068 0.34585688
-0.11611418 0.011706369 0.34635842
-0.11798301 0.01364277 0.34475771
-0.0074212896 -0.039377362 0.34461713
-0.0099209789 -0.039320521 0.34589797
-0.11723929 0.0086380476 0.34643915
-0.0093829352 -0.043524999 0.34469241
-0.011347807 -0.041934866 0.3456808
-0.013430402 -0.042089947 0.34595516
-0.11628018 0.0046051601 0.34652868
-0.11809441 0.0058278767 0.34604937
-0.12051367 0.0057115704 0.34532574
-0.010336695 -0.045417838 0.34434795
-0.012656565 -0.044669248 0.34549397
-0.014454451 -0.04396582 0.34597319
-0.1171165 0.0020887144 0.34654844
-0.11878122 0.0036650049 0.34606412
-0.12098937 0.00496356 0.34470704
-0.01220025 -0.048531771 0.34402084
-0.013933814 -0.047372308 0.3450588
-0.016393494 -0.046697032 0.34589994
-0.11795297 -0.00026678713 0.34624502
-0.12069221 -0.00076223863 0.34459192
-0.12276229 -2.1425076e-06 0.34460443
-0.013063928 -0.049422607 0.34399074
-0.015371686 -0.049847022 0.3442913
-0.017783381 -0.048910081 0.34522969
-0.019838829 -0.048500009 0.34603995
-0.11976344 -0.0033078175 0.34509805
-0.12144344 -0.0017724745 0.34460318
-0.12302577 -0.00064408593 0.34460992
-0.016954996 -0.052119449 0.34403598
-0.019036455 -0.051554356 0.34493837
-0.021611551 -0.050474443 0.34596232
-0.023722574 -0.050380841 0.34608078
-0.018374272 -0.053861246 0.3440564
-0.020344768 -0.053980976 0.34462568
-0.022981668 -0.053086292 0.34547731
-0.024941977 -0.052591488 0.34610212
-0.022188423 -0.055307504 0.34509444
-0.02447309 -0.055394799 0.34568939
-0.026676584 -0.055012401 0.34612846
-0.026155053 -0.057216302 0.34596947
-0.028325584 -0.057278294 0.34588483
-0.030650122 -0.056915246 0.34617028
-0.030274 -0.05998645 0.34476036
-0.032228529 -0.059011795 0.34549206
-0.034448288 -0.058483835 0.3461231
-0.031199845 -0.061474852 0.34419858
-0.033501737 -0.061383575 0.34449849
-0.036055226 -0.060387958 0.34577134
-0.038593665 -0.060048353 0.34625009
-0.037437953 -0.061836693 0.34549028
-0.040045179 -0.061632201 0.34620482
-0.042741608 -0.061171025 0.34628886
-0.044956088 -0.061007526 0.34630582
-0.10985717 -0.032002784 0.34667012
-0.11165076 -0.030177359 0.34660566
-0.11384743 -0.028718293 0.34584963
-0.042589735 -0.064579435 0.3446807
-0.043987613 -0.063437484 0.34552801
-0.046685718 -0.062637784 0.34620297
-0.049111485 -0.062538482 0.34634697
-0.10808717 -0.035399485 0.34667394
-0.10981133 -0.034156356 0.3463774
-0.11251345 -0.032879304 0.34580192
-0.11479905 -0.031709366 0.34483635
-0.043127473 -0.065925837 0.34431702
-0.045398086 -0.065724619 0.34450468
-0.048093751 -0.064944811 0.34523931
-0.05084084 -0.063956283 0.3460314
-0.053673174 -0.063426249 0.34638798
-0.055879563 -0.062934332 0.34640294
-0.10696851 -0.039974995 0.34668911
-0.10864432 -0.038214851 0.34608191
-0.11091217 -0.036668602 0.3449975
-0.11342772 -0.035345081 0.34479201
-0.11531661 -0.033677902 0.34472233
-0.047214288 -0.067052037 0.34435549
-0.049380023 -0.06676399 0.34437129
-0.05207276 -0.066273198 0.34473619
-0.05472406 -0.065321095 0.34548092
-0.057409912 -0.064270899 0.34605771
-0.060193975 -0.063400835 0.34637406
-0.062875517 -0.062588491 0.34645686
-0.10011063 -0.046290267 0.34666768
-0.10198098 -0.045341361 0.3466776
-0.10462914 -0.043620024 0.34668961
-0.10690169 -0.042134803 0.34626973
-0.10930195 -0.040766675 0.34527254
-0.11162557 -0.038993727 0.34472093
-0.11337407 -0.037529834 0.34472713
-0.053759024 -0.067655519 0.34441084
-0.055823192 -0.067206621 0.3444472
-0.058583118 -0.066591129 0.34480435
-0.061390545 -0.065539725 0.34543648
-0.064186096 -0.064386554 0.34609649
-0.06693323 -0.063569173 0.34638023
-0.069869459 -0.06271296 0.34651321
-0.072344065 -0.0618762 0.34652853
-0.087371625 -0.055349201 0.34661388
-0.089399077 -0.054292664 0.34662446
-0.09206596 -0.053080618 0.34663934
-0.094742656 -0.051556904 0.34665263
-0.097247086 -0.049961518 0.34641132
-0.099795997 -0.048455365 0.34623113
-0.10259328 -0.047156159 0.34596658
-0.10524801 -0.045792405 0.345698
-0.10759169 -0.044370588 0.34522358
-0.10976754 -0.042877443 0.34472656
-0.060495067 -0.067757837 0.34446502
-0.062567666 -0.067266002 0.34447896
-0.065307423 -0.066622324 0.34475049
-0.068176195 -0.065713376 0.34512866
-0.070902012 -0.064621486 0.34550723
-0.073513553 -0.063407019 0.34594378
-0.07628838 -0.062336851 0.34612477
-0.079162411 -0.06105027 0.34616601
-0.081910707 -0.059779774 0.34619352
-0.084630907 -0.058592919 0.34618348
-0.087266892 -0.057232879 0.34625924
-0.090134747 -0.056053869 0.34600744
-0.092833944 -0.054858975 0.34589666
-0.095514745 -0.053643145 0.34574696
-0.098216966 -0.05241251 0.34532329
-0.10099044 -0.05104633 0.3450298
-0.10337911 -0.049486574 0.34479731
-0.10528067 -0.047901761 0.34471726
-0.0696439 -0.06708324 0.34453434
-0.071931414 -0.066449814 0.3445493
-0.074679591 -0.065370649 0.344706
-0.07742893 -0.064373687 0.34488192
-0.080146596 -0.063255057 0.34514323
-0.082863763 -0.06208501 0.34506586
-0.085571118 -0.060886052 0.34501845
-0.088221185 -0.059546255 0.34490851
-0.090899162 -0.058208324 0.34476134
-0.093696326 -0.056890044 0.34467226
-0.096299574 -0.055575576 0.34468615
-0.098777801 -0.054167438 0.34469837
-0.10064995 -0.05311361 0.34470779
-0.024837054 0.041424748 0.34660664
-0.02651339 0.042456154 0.34661451
-0.02905426 0.043877069 0.34662727
-0.031616405 0.045133468 0.34664106
-0.03435237 0.046403214 0.34665614
-0.037021555 0.047706652 0.3466706
-0.039867625 0.048767053 0.34668764
-0.042647701 0.049901012 0.34670386
-0.045270033 0.050967064 0.34671912
-0.047755506 0.051849108 0.34673429
-0.017214635 0.035289343 0.34657815
-0.019166889 0.036748793 0.3466163
-0.021616109 0.038004849 0.34668753
-0.024340669 0.039352529 0.34665897
-0.027082434 0.04062191 0.34696871
-0.046007022 0.049546514 0.34701028
-0.048947882 0.05073221 0.34674963
-0.051702477 0.051416121 0.34676799
-0.054548252 0.051971342 0.34678772
-0.056484174 0.052548315 0.34680018
-0.010775371 0.028718948 0.34656146
-0.012315584 0.029970754 0.34656709
-0.014742471 0.031527787 0.34664235
-0.017325489 0.033011306 0.34692436
-0.020091441 0.034313653 0.34742099
-0.052856635 0.050201736 0.34678358
-0.055348922 0.051059064 0.3467989
-0.058242809 0.051750258 0.34681833
-0.061169036 0.052070066 0.34683996
-0.063330323 0.052461375 0.34685513
-0.010966487 0.02657783 0.34657422
-0.01299964 0.027890224 0.34687239
-0.015638672 0.02907642 0.34747335
-0.062790081 0.051657051 0.34685507
-0.064184904 0.052021552 0.34686425
-0.0071654702 0.020667642 0.34657505
-0.0091648223 0.022271201 0.34670374
-0.011572768 0.023888651 0.34706324
-0.0052228579 0.017158825 0.34657803
-0.0073798234 0.018612165 0.34684896
-0.0037468087 0.013442674 0.34658581
-0.0058133942 0.014869576 0.34685481
-0.0027283742 0.009234475 0.34659988
-0.004276562 0.01078677 0.34685659
-0.0012497392 0.0051710606 0.34660947
-0.002838389 0.0066609494 0.34675562
-0.0016676891 0.0028623599 0.34689361
-0.00084420806 -0.0011538118 0.34663951
-5.2794348e-05 -0.0057835886 0.3466576
-0.00032210723 -0.0078767724 0.34667075
-0.0010104536 -0.01046474 0.3467333
-0.00057502999 -0.014494958 0.34670764
-0.001865939 -0.013294884 0.34708914
-0.0016409443 -0.016971547 0.34672913
-0.0030956378 -0.016010448 0.34733355
-0.002489035 -0.019703127 0.34675023
-0.0031996428 -0.022567846 0.34677097
-0.0045019528 -0.025045805 0.34679437
-0.0058239833 -0.028091136 0.34690666
-0.1111472 0.019070253 0.34741163
-0.0070994375 -0.030434795 0.34684342
-0.11242043 0.016520839 0.34743524
-0.0085144369 -0.033380635 0.34687021
-0.010405812 -0.032446332 0.34755999
-0.11355259 0.013671594 0.34745923
-0.0096290624 -0.035944916 0.3468926
-0.011579787 -0.035270903 0.34754673
-0.11509423 0.011070567 0.34748521
-0.011109016 -0.038641699 0.34691852
-0.012866702 -0.037960701 0.34734482
-0.11600993 0.0082995519 0.34750706
-0.01221486 -0.040509697 0.34693724
-0.014147587 -0.040653676 0.34736639
-0.11642925 0.0064619072 0.34752014
-0.015566977 -0.043231878 0.34712458
-0.018062336 -0.042170033 0.3481324
-0.017088331 -0.045486499 0.34700218
-0.019256376 -0.044889618 0.34778562
-0.018613592 -0.047266558 0.34702376
-0.020787604 -0.04737569 0.34725094
-0.022525918 -0.049152188 0.34706479
-0.024594516 -0.04897701 0.34761795
-0.026077982 -0.05158091 0.3474097
-0.028385015 -0.050730322 0.3480157
-0.027555514 -0.054027088 0.34713051
-0.02965769 -0.05344791 0.34741777
-0.031162251 -0.055793513 0.34716853
-0.033671796 -0.055025633 0.34766111
-0.032872606 -0.057257071 0.34718987
-0.035153493 -0.057305027 0.34723815
-0.037612148 -0.056351084 0.34791452
-0.036713928 -0.058801126 0.34722859
-0.039059773 -0.058759764 0.34732023
-0.041613739 -0.057917237 0.3479003
-0.040708825 -0.060248338 0.34726804
-0.042781673 -0.059885513 0.34728262
-0.045552813 -0.059492398 0.34774607
-0.048314184 -0.05834081 0.34866688
-0.10936666 -0.031903684 0.3476657
-0.047097761 -0.061355602 0.3473247
-0.049550332 -0.060876861 0.34757888
-0.05225087 -0.059816074 0.34805012
-0.10586997 -0.037081398 0.34766513
-0.10707212 -0.035365108 0.34766567
-0.10852608 -0.033361219 0.34766674
-0.050909046 -0.062438551 0.34736076
-0.053362526 -0.062046845 0.34737825
-0.056093674 -0.061173506 0.3475917
-0.058943868 -0.060046937 0.34806675
-0.10142212 -0.042379729 0.34765759
-0.10336403 -0.040910859 0.34766531
-0.10557738 -0.039237604 0.34767413
-0.10734419 -0.03779443 0.3476806
-0.057491884 -0.06269031 0.34741452
-0.059994083 -0.062074617 0.34743121
-0.062999167 -0.061232314 0.3474848
-0.065626234 -0.060729418 0.347469
-0.06862428 -0.06013893 0.34782308
-0.07097815 -0.05945693 0.34808835
-0.095941491 -0.047187097 0.34803471
-0.098667294 -0.0459067 0.34778938
-0.10123003 -0.044402704 0.34766668
-0.10371231 -0.042852376 0.3476783
-0.10588005 -0.041127484 0.34768647
-0.064920254 -0.062494211 0.3474727
-0.066778153 -0.062208842 0.34748593
-0.069471352 -0.061517224 0.34750378
-0.072392762 -0.06049148 0.3475633
-0.075208999 -0.059501085 0.34770218
-0.077830933 -0.058199015 0.34794122
-0.080606818 -0.057046026 0.3480508
-0.083385587 -0.05583391 0.34803757
-0.086095341 -0.054455314 0.34784684
-0.088698879 -0.05318604 0.34765908
-0.091438368 -0.051978093 0.34762853
-0.094062224 -0.050553069 0.34764194
-0.096467651 -0.048827376 0.34765205
-0.098933548 -0.047365941 0.347664
-0.074334584 -0.061656963 0.34754327
-0.076180242 -0.061098292 0.34755501
-0.078522541 -0.060024038 0.34756801
-0.081287898 -0.058714267 0.34758314
-0.084100299 -0.057455759 0.34759891
-0.086287312 -0.056308348 0.34761035
