# .PCD v0.7 - Point Cloud Data file format
VERSION 0.7
FIELDS x y z
SIZE 4 4 4
TYPE F F F
COUNT 1 1 1
WIDTH 1364
HEIGHT 1
VIEWPOINT 0 0 0 1 0 0 0
POINTS 1364
DATA ascii
-0.025938675 -0.033464037 0.33809033
-0.027304977 -0.032479838 0.33788347
-0.029018223 -0.031391598 0.33713296
-0.026372977 -0.036050163 0.33780211
-0.02818989 -0.034975953 0.3375248
-0.02934885 -0.033627257 0.33811057
-0.026052497 -0.039679952 0.33795696
-0.02723524 -0.038229246 0.33759642
-0.029431134 -0.037272088 0.33703238
-0.030887745 -0.036835022 0.33705187
0.13661124 -0.11723344 0.33514819
0.13515937 -0.1167638 0.33516851
-0.026394501 -0.041791707 0.33773512
-0.0282223 -0.040505551 0.33729628
-0.029998094 -0.039269105 0.33699313
-0.031279385 -0.037956137 0.33703041
0.13566878 -0.11882745 0.33512032
0.13433856 -0.11828677 0.3351413
-0.027229473 -0.044013366 0.33733994
-0.029417686 -0.042965278 0.33666515
-0.031074293 -0.04244243 0.33608344
0.1344621 -0.1201421 0.33510047
0.13293436 -0.12016958 0.33511043
-0.026254952 -0.047844015 0.33778223
-0.028014109 -0.046445351 0.33730808
-0.030049674 -0.045421742 0.33686075
-0.031481326 -0.043702729 0.33590758
0.13242319 -0.12167093 0.3350817
-0.025281914 -0.051299129 0.33730075
-0.026697062 -0.049877193 0.33710918
-0.029043339 -0.048792522 0.33683929
-0.030968063 -0.047806617 0.33681566
0.12724945 -0.12467504 0.33505303
0.12624282 -0.12431027 0.3350679
-0.025876075 -0.053309146 0.33683127
-0.027817748 -0.052304238 0.33664834
-0.030282669 -0.05128634 0.33660933
-0.031843349 -0.050647736 0.33653826
0.12659971 -0.12606011 0.33502758
0.12499848 -0.12550633 0.3350507
-0.025511056 -0.057309449 0.33757281
-0.026653409 -0.055647928 0.33714217
-0.028855607 -0.054465152 0.33647698
-0.030729569 -0.053096078 0.33599135
0.12545264 -0.12782851 0.33499748
0.12355323 -0.12743159 0.3350192
0.12205644 -0.12745501 0.33502927
-0.024419107 -0.060893558 0.33748788
-0.025551729 -0.059364259 0.33749095
-0.027476303 -0.058072809 0.33695233
-0.029559284 -0.056851581 0.33661073
0.12230396 -0.12877885 0.33499897
-0.024767332 -0.062488712 0.33745587
-0.026361994 -0.061524745 0.33711421
-0.028607234 -0.060490116 0.33654106
0.11836071 -0.13160434 0.33496547
0.11652761 -0.13089921 0.33499351
-0.025513761 -0.06505239 0.33740568
-0.027336642 -0.063933969 0.33725587
-0.029251896 -0.063145638 0.33708826
0.11725588 -0.13281153 0.33494723
0.11544046 -0.13253124 0.3349658
0.11329418 -0.13202839 0.33499169
-0.024360418 -0.068743408 0.337318
-0.026260823 -0.067482397 0.33702511
-0.028499603 -0.066281818 0.33731377
-0.030215345 -0.065260664 0.33743402
0.11427448 -0.1344364 0.33488742
0.1121382 -0.13375345 0.33496249
0.11031542 -0.13322154 0.33498675
-0.023020774 -0.071914263 0.33724025
-0.024934962 -0.070791699 0.33722514
-0.026957802 -0.069551088 0.3366155
-0.029276751 -0.068741485 0.33718571
-0.030344427 -0.06707488 0.33739585
0.11258735 -0.13623486 0.33490595
0.11103819 -0.13605514 0.3349205
0.1088616 -0.13552399 0.3349472
0.10655427 -0.13546821 0.33496457
-0.022041678 -0.075834095 0.3371489
-0.023639746 -0.074336328 0.33719227
-0.02607502 -0.073128499 0.33690873
-0.027967446 -0.071918115 0.33654383
-0.029754035 -0.070492707 0.33731803
0.1094442 -0.13725296 0.33490589
0.10735221 -0.13706928 0.33492437
0.10558618 -0.13664763 0.33494583
-0.02058851 -0.07904397 0.3369444
-0.022447057 -0.077751033 0.33672562
-0.024631746 -0.076643571 0.33661318
-0.026666395 -0.075292118 0.3367483
-0.028303944 -0.073877007 0.3362346
0.10591009 -0.13848278 0.33490404
0.10510622 -0.1380318 0.33491939
0.10178772 -0.1387573 0.3349269
-0.019396618 -0.082291037 0.33699113
-0.021164179 -0.081132963 0.33655894
-0.023509331 -0.08001411 0.33606884
-0.02484446 -0.079036377 0.33609915
0.10208204 -0.14045818 0.33488816
0.1007041 -0.13993257 0.33490896
0.098448172 -0.1393301 0.33493775
0.096325174 -0.13921505 0.33495516
-0.016729906 -0.087373152 0.33686286
-0.017992646 -0.085963696 0.33690202
-0.019794568 -0.084679857 0.33671334
-0.021937057 -0.083412692 0.33624703
-0.023832336 -0.082009628 0.33602795
0.099501006 -0.14179327 0.33487731
0.09719348 -0.14125733 0.33490491
0.094825 -0.14025512 0.33494306
0.092943661 -0.13990615 0.33496386
-0.014801018 -0.090999417 0.33677116
-0.016522616 -0.089246593 0.33680269
-0.018566988 -0.088131785 0.33680034
-0.020641066 -0.086879224 0.33625785
-0.021824725 -0.085578173 0.3359369
0.095989004 -0.14318852 0.33487165
0.093761221 -0.14243178 0.33490351
0.091536604 -0.14149368 0.33493927
0.089529887 -0.1413746 0.33495602
-0.013728 -0.094004035 0.33669883
-0.014941543 -0.092576325 0.33673802
-0.017238773 -0.091429234 0.33635661
-0.019552216 -0.090396039 0.33589512
-0.020613141 -0.088927694 0.33685642
0.092330247 -0.14374347 0.33488536
0.090390399 -0.14361985 0.33490142
0.088003047 -0.14274935 0.33493686
0.085555226 -0.14222893 0.33496523
0.083794408 -0.14213242 0.33497965
-0.010091156 -0.098757684 0.33657089
-0.011648342 -0.097662471 0.33660528
-0.01396472 -0.096249968 0.33619151
-0.015898287 -0.094860092 0.3362765
-0.018161766 -0.093893521 0.33643475
-0.020025298 -0.092181899 0.3357819
0.08878462 -0.14515351 0.33487967
0.086852401 -0.14477199 0.33490127
0.084711768 -0.14389412 0.33493516
0.082534142 -0.14326563 0.33496404
-0.0088997856 -0.1021877 0.33648857
-0.010197952 -0.10066943 0.33653027
-0.012351356 -0.09941373 0.33604974
-0.014530592 -0.098180853 0.33562955
-0.016741186 -0.096736416 0.33566064
-0.018312953 -0.095516443 0.33569795
0.082957931 -0.14494446 0.33492482
0.081449255 -0.14499751 0.33493412
0.078402214 -0.14431366 0.33497015
0.076277241 -0.14352004 0.33500212
0.074436538 -0.14311579 0.33502379
-0.0070762485 -0.10566534 0.33619243
-0.0089047402 -0.104127 0.33609998
-0.010949284 -0.10292316 0.3357881
-0.013345674 -0.10179967 0.33554995
-0.014564022 -0.10059829 0.33556214
0.077395931 -0.1456736 0.33494788
0.075249121 -0.1452475 0.33497199
0.072966561 -0.1444331 0.33496439
0.070562765 -0.14360385 0.33497953
0.067987353 -0.14289485 0.3350735
0.065998517 -0.14241815 0.33509773
-0.00078362972 -0.1109596 0.33624256
-0.0027600527 -0.11007795 0.33600116
-0.0054899305 -0.10849057 0.33596358
-0.0072968379 -0.10719106 0.33557919
-0.0094925761 -0.10614302 0.33542675
-0.011953473 -0.10499263 0.33544919
-0.013564356 -0.10392983 0.33548331
0.071986765 -0.14586031 0.3341898
0.069440767 -0.14551336 0.33413619
0.067011714 -0.14474109 0.33452898
0.064734444 -0.14362898 0.3349649
0.062312648 -0.14301147 0.3351106
0.060016774 -0.14236981 0.33514053
0.0022573397 -0.11483245 0.33613786
0.00086105615 -0.11429355 0.33615911
-0.001336053 -0.11311257 0.33619994
-0.0036552995 -0.11202496 0.33551866
-0.0058576092 -0.11057588 0.33536816
-0.0080556348 -0.10902596 0.3353349
-0.0094501153 -0.10807614 0.33536512
0.067827098 -0.14630198 0.33300066
0.066512212 -0.145843 0.3330197
0.06389875 -0.14493908 0.33410648
0.06122227 -0.14452772 0.33508542
0.058983814 -0.14357324 0.33512163
0.056658633 -0.14266467 0.33515748
0.053860899 -0.14202242 0.33519095
0.051681846 -0.14107372 0.33522666
0.049599834 -0.14041044 0.33525553
0.0066065118 -0.12002629 0.33599535
0.0055525973 -0.11936064 0.33601716
0.00083333254 -0.11770555 0.3360858
-8.1211329e-07 -0.11622699 0.33584473
-0.0023006871 -0.11510549 0.33564135
-0.0043689907 -0.11389334 0.33540872
-0.0059105828 -0.11292869 0.33523569
0.057782382 -0.14572188 0.33508369
0.055475164 -0.14487183 0.33511811
0.053071674 -0.14376724 0.33515871
0.050679043 -0.14278355 0.33508417
0.048346706 -0.14170225 0.3349416
0.045987576 -0.1408567 0.33511379
0.043611445 -0.13987859 0.33530867
0.040976103 -0.13887654 0.33507451
0.038801588 -0.13766405 0.33492428
0.036367323 -0.13698901 0.33523554
0.034642614 -0.13629682 0.33544871
0.028375182 -0.13378756 0.33554655
0.027668267 -0.1334627 0.3355585
0.010093566 -0.12444662 0.33587563
0.0080952942 -0.12338802 0.33591238
0.006710425 -0.12149809 0.33596298
0.00050828606 -0.11841238 0.33607283
4.5947731e-05 -0.11811426 0.33608249
0.056380287 -0.14700016 0.33506599
0.054745451 -0.14633445 0.3350918
0.052421577 -0.1451809 0.3351329
0.049792252 -0.14408183 0.33473042
0.047702514 -0.1431299 0.33387646
0.045252655 -0.1420517 0.33442417
0.042613357 -0.14130475 0.33494392
0.040306956 -0.14072864 0.33441633
0.037886292 -0.13964829 0.33435357
0.035450503 -0.13852473 0.3344934
0.033030402 -0.13779891 0.33510238
0.030335411 -0.136851 0.33528063
0.028364338 -0.13546605 0.33506292
0.027026381 -0.13461667 0.33543283
0.038338263 -0.14151035 0.33431014
0.034821369 -0.13989411 0.33436957
0.032196794 -0.13893892 0.33536115
0.030152485 -0.13797528 0.33530742
0.027928267 -0.13672629 0.33448604
0.10978314 0.041025098 0.33975038
0.10483819 0.042947676 0.33982638
0.12771504 0.029566061 0.33937797
0.12487325 0.030872043 0.33942595
0.12223132 0.032680664 0.33948344
0.12034336 0.033410247 0.33974934
0.11783336 0.034818996 0.33974043
0.11569814 0.035803255 0.33974466
0.11340525 0.037050862 0.33965868
0.11098769 0.038105998 0.33999795
0.10875128 0.039311979 0.34003896
0.10642671 0.040178154 0.33981448
0.10423706 0.041515764 0.33979979
0.10163571 0.042239558 0.33983353
0.099110655 0.043193463 0.3398717
0.096682653 0.044224549 0.33991089
0.094878867 0.045234609 0.33994526
0.13449603 0.023352053 0.33919656
0.1331217 0.024293449 0.33922645
0.13095954 0.025624726 0.33927035
0.12869519 0.027107988 0.33959764
0.12659559 0.028330479 0.33969676
0.12428403 0.029496212 0.33986482
0.12189575 0.030546468 0.34010652
0.11959159 0.031591129 0.34037593
0.1171017 0.032759357 0.34043536
0.11482126 0.03385305 0.34043732
0.1127827 0.035130974 0.34022143
0.11033759 0.036753628 0.34055454
0.10809407 0.037582751 0.34068814
0.10652966 0.038786743 0.34012488
0.10047286 0.041214298 0.33986115
0.098271601 0.041556116 0.34047058
0.09596137 0.042417753 0.34025508
0.093495265 0.043464039 0.34012336
0.091096483 0.044361006 0.34000131
0.088657856 0.045259792 0.3399893
0.086365089 0.045969803 0.3400206
0.083731182 0.046953496 0.34006011
0.082207136 0.047382157 0.34008002
0.13896623 0.019112114 0.33907387
0.13708657 0.02011301 0.3391495
0.13466355 0.02139559 0.33951175
0.13262078 0.022715639 0.33973771
0.13034621 0.02384517 0.33993486
0.12789293 0.024907272 0.34027633
0.1256611 0.026159119 0.34031901
0.12351028 0.027607638 0.34036532
0.12112485 0.028720979 0.34040597
0.11854604 0.029459219 0.34043983
0.11653423 0.030765463 0.34048215
0.11456859 0.032126013 0.34052521
0.096937351 0.040343996 0.34082562
0.095255896 0.04086693 0.34084857
0.092470467 0.041764352 0.34088746
0.090279773 0.042561423 0.34075984
0.087733276 0.04356524 0.34061006
0.085326344 0.044433217 0.34049481
0.082922645 0.045433167 0.34014741
0.080720514 0.046288181 0.34006691
0.077887133 0.046813246 0.34009787
0.074953407 0.048076924 0.34014562
0.074057326 0.048374008 0.34015831
0.14661431 0.012275919 0.33887297
0.14530487 0.01326488 0.33890349
0.14309892 0.014493797 0.33894545
0.140746 0.015775327 0.33906958
0.13839561 0.017024901 0.33972535
0.13650185 0.01845682 0.33994272
0.13415036 0.019707303 0.34012061
0.1319017 0.021043252 0.34016511
0.12927222 0.022034641 0.34020486
0.12725922 0.022827152 0.34023601
0.12587404 0.024278533 0.34027699
0.086127073 0.041887607 0.34093437
0.084321126 0.042615455 0.34096271
0.082303531 0.043640982 0.34084499
0.079613611 0.044402998 0.34039909
0.077233404 0.045414682 0.34047782
0.074774444 0.046336543 0.34026664
0.072806031 0.047082085 0.34013924
0.14785381 0.0086085871 0.3387852
0.14669418 0.010256156 0.33890575
0.14466718 0.011536401 0.3394441
0.14240509 0.012721673 0.3397842
0.14018413 0.014134154 0.33986381
0.13793199 0.015324857 0.33999965
0.13667943 0.016430255 0.34003222
0.078374743 0.043109681 0.34101486
0.076275826 0.043319385 0.34103397
0.073690861 0.044258896 0.34086525
0.071327142 0.045015138 0.34027371
0.069004372 0.045906212 0.34021625
0.066599801 0.046769205 0.34017587
0.064517379 0.047174711 0.34019902
0.14981619 0.0050909184 0.33869562
0.14788531 0.0070141107 0.33900562
0.14593403 0.0080158561 0.3396683
0.14391445 0.009258464 0.33982697
0.142373 0.010599703 0.33986667
0.072233588 0.042732362 0.34104955
0.07021682 0.043338519 0.34107676
0.067882128 0.044013437 0.34099978
0.065551743 0.044904511 0.34061283
0.063342474 0.045626443 0.3402524
0.060706735 0.046076838 0.34020191
0.15321711 0.00080887973 0.33857945
0.1513243 0.0020735823 0.33871683
0.14957666 0.0035136268 0.33920884
0.14719515 0.0050956644 0.33971423
0.14542612 0.0062367767 0.33975118
0.0664322 0.042717736 0.34108976
0.064606383 0.043114837 0.34111109
0.06219162 0.043812055 0.34090531
0.059764318 0.044815656 0.3407414
0.057447068 0.045451511 0.34034926
0.054935351 0.046293352 0.34024695
0.15709098 -0.0042412058 0.33844346
0.15497985 -0.0025826283 0.33849406
0.15282288 -0.0011373572 0.33879843
0.15109009 6.6783279e-05 0.33943999
0.14938065 0.0015554503 0.33962259
0.060578011 0.042525608 0.34112647
0.058596518 0.042677674 0.34114352
0.056219924 0.043537635 0.34088314
0.053882733 0.044394989 0.34040627
0.051664934 0.045043502 0.34024283
0.15798372 -0.0072902553 0.33837143
0.15645304 -0.0057966672 0.33843622
0.15433729 -0.0046105981 0.33872071
0.15211271 -0.0034488663 0.33926469
0.15087648 -0.0021286681 0.3395327
0.056891467 0.04127964 0.34112534
0.055359416 0.041576784 0.34114245
0.052700415 0.042413954 0.34113055
0.050543241 0.043138687 0.34043935
0.04831174 0.043796536 0.34023935
0.16230845 -0.011623342 0.33824781
0.16020337 -0.010230027 0.33845934
0.15796995 -0.0090792999 0.33859026
0.1557042 -0.0078644343 0.33911258
0.15329471 -0.0068287328 0.3394143
0.1519506 -0.0050992072 0.33946109
0.05108159 0.04080772 0.34115568
0.049295451 0.041131955 0.34102577
0.047214597 0.041873325 0.34085473
0.04466559 0.042700913 0.34036365
0.042840578 0.042871874 0.34025753
0.16159283 -0.013349079 0.33821565
0.15947366 -0.01239999 0.33898705
0.15709016 -0.011320978 0.33929089
0.15463085 -0.010053508 0.33933538
0.15263712 -0.0089824162 0.33937258
0.04785502 0.039576862 0.34115162
0.045971431 0.039725978 0.34116793
0.043656971 0.040818583 0.34067747
0.041426189 0.041706059 0.34024233
0.16585118 -0.019625297 0.3380504
0.16245495 -0.017092176 0.33812883
0.16057599 -0.015911974 0.33844456
0.15839863 -0.014760613 0.3390705
0.1567536 -0.013178997 0.33925319
0.044765808 0.037672218 0.34113207
0.042525455 0.038483392 0.34100655
0.040176407 0.039412919 0.34066233
0.037961312 0.04002643 0.34039396
0.035839368 0.040123452 0.34024706
0.16608143 -0.020247407 0.33803535
0.16426474 -0.020330362 0.33804622
0.16181043 -0.019344877 0.33808479
0.15960671 -0.018335182 0.33887193
0.15788776 -0.016849741 0.33916607
0.041646741 0.036966916 0.34113869
0.039019391 0.037585344 0.3411704
0.036533888 0.038294706 0.34098208
0.034542523 0.038822826 0.34059557
0.16488832 -0.024032746 0.33796203
0.16304061 -0.022866057 0.3380166
0.16086456 -0.021680163 0.338541
0.15935156 -0.020549621 0.33907607
0.03538359 0.036186364 0.34116557
0.033287968 0.036853436 0.34119448
0.030962594 0.037585128 0.34050429
0.028895427 0.038048547 0.34025076
0.16572484 -0.027177628 0.3378883
0.16446009 -0.026208676 0.33796108
0.16222849 -0.025054114 0.33845866
0.16043505 -0.024007263 0.33899394
0.033958189 0.035042752 0.34115085
0.032315049 0.035436261 0.34117076
0.029864822 0.035931703 0.34087414
0.027564269 0.036532905 0.34035739
0.025468215 0.036284942 0.34023663
0.16487043 -0.029655136 0.33784083
0.16331108 -0.028650345 0.33831188
0.16128373 -0.027361365 0.33891553
0.16011208 -0.025959676 0.33895403
0.028282423 0.033796798 0.34116358
0.026325185 0.034345228 0.3407827
0.024113081 0.034936767 0.34029213
0.16610847 -0.033063658 0.33775863
0.16442263 -0.032194097 0.33823377
0.16254625 -0.031013153 0.33863148
0.1613192 -0.029541051 0.33886835
0.027156297 0.032288339 0.3411389
0.025055606 0.032440882 0.3411569
0.022860944 0.033070777 0.34075353
0.021049362 0.03377239 0.3402133
0.16535932 -0.035691179 0.33782157
0.16365202 -0.034369975 0.3386783
0.1620833 -0.032694023 0.33879495
0.02338244 0.030702006 0.341131
0.021685842 0.031059187 0.34102345
0.019857552 0.031424914 0.34037107
0.16633627 -0.039015241 0.33762863
0.16485417 -0.037948437 0.33797795
0.16314489 -0.036855172 0.33869782
0.019916032 0.029043589 0.34111938
0.01842111 0.029346179 0.34058973
0.016125716 0.030110586 0.34016874
0.16568527 -0.041341133 0.33758309
0.16387838 -0.040338684 0.33820403
0.16254634 -0.039114155 0.33865321
0.018886965 0.027095195 0.34108457
0.017259933 0.027156096 0.34089023
0.015071794 0.028038826 0.34029362
0.013390519 0.028136697 0.34014514
0.16648996 -0.044734884 0.33750415
0.16504686 -0.04370958 0.33771831
0.16304451 -0.042582724 0.33847135
0.015922222 0.025820192 0.34107774
0.013863496 0.025946539 0.34071806
0.011944998 0.026301648 0.34022689
0.16708337 -0.048759241 0.33741319
0.16602921 -0.047222365 0.33745381
0.16432762 -0.045730814 0.33794793
0.16286269 -0.044489991 0.33853501
0.01251328 0.023562241 0.34105283
0.010636717 0.024349976 0.34046739
0.1669527 -0.049043376 0.33740798
0.16495889 -0.049360614 0.3375338
0.16291276 -0.048522398 0.33836302
0.16092829 -0.047911752 0.33847472
0.01148697 0.021717239 0.34102017
0.0093634501 0.022155862 0.34068564
0.0073548071 0.022599954 0.34029651
0.16400774 -0.05137844 0.3377533
0.16204093 -0.050686967 0.33840704
0.16076925 -0.049292944 0.33844599
0.0079585388 0.019883219 0.340927
0.0060615838 0.020633172 0.34019631
0.0039246902 0.020577919 0.34004813
0.16432117 -0.055597387 0.33728492
0.1629197 -0.054239709 0.33789995
0.16171417 -0.053165235 0.33835584
0.0067493916 0.017759491 0.34094611
0.0047807842 0.018450607 0.34036344
0.0027438328 0.019279201 0.34002846
0.16504475 -0.059180595 0.33720255
0.16396224 -0.057515625 0.33739135
0.16246034 -0.056585565 0.33824983
0.0053110868 0.0155687 0.34093061
0.0035827681 0.016334374 0.34077486
0.0015708134 0.017052162 0.34004316
0.16506626 -0.060755715 0.33716851
0.16303919 -0.059904195 0.33752164
0.16159341 -0.058948927 0.33823189
0.0044025481 0.014104526 0.34090537
0.0024333745 0.01400806 0.34088418
0.00050417334 0.014910165 0.34016502
-0.0011313185 0.015122812 0.33996573
0.16425946 -0.063402034 0.33711711
0.16233382 -0.0624029 0.33789811
0.0026620105 0.010338519 0.34083626
0.0013268217 0.011478458 0.34058431
-0.00076529384 0.012510221 0.33994749
-0.002540186 0.013029519 0.33993042
0.16278881 -0.065543905 0.3370811
0.16141286 -0.064801231 0.33786684
0.0021609589 0.0095310844 0.34082234
0.00048872083 0.0097266734 0.34083825
-0.0018209442 0.0099894777 0.34071711
-0.0042918175 0.010862615 0.3399182
0.16329035 -0.069732562 0.33698714
0.16217735 -0.068165362 0.3372975
0.16072211 -0.067214042 0.33805969
0.00033399463 0.0051821768 0.34074128
-0.0010930821 0.0063239112 0.34077588
-0.0030090064 0.0077962652 0.34078085
-0.0051531345 0.0088345371 0.34008178
0.16714627 -0.07441891 0.33785936
0.16537417 -0.072742566 0.33714306
0.16359118 -0.071632251 0.33694419
0.16134867 -0.070606679 0.33746916
0.15964621 -0.069798559 0.33801141
-7.1458519e-05 0.0046766996 0.3407332
-0.0018090904 0.0049102791 0.34075037
-0.0041137561 0.0053627975 0.34077612
-0.0063199848 0.0064184554 0.34010002
-0.0083929449 0.0060692094 0.33982107
0.16667792 -0.075377919 0.3378419
0.16468093 -0.074851677 0.33714372
0.16252095 -0.074025527 0.33690003
0.16027215 -0.072992548 0.33761406
0.15810359 -0.07230404 0.33796817
-0.0055989847 0.0040095076 0.34075737
-0.0075615719 0.0044126771 0.34008735
-0.009147577 0.0046324804 0.33979532
0.16311789 -0.076912567 0.33683342
0.16146295 -0.076284617 0.33685866
0.15923122 -0.075275302 0.33761823
0.15716013 -0.074202821 0.33793372
-0.0074465424 0.00052538514 0.34069508
-0.0087164044 0.0017857663 0.34017408
-0.010416843 0.0023336448 0.33975458
0.16241486 -0.079121798 0.33679071
0.16032308 -0.078600705 0.33681664
0.15814157 -0.077712923 0.33767816
0.15687686 -0.076513708 0.33788583
-0.0077833831 -0.00035752356 0.34067839
-0.0098786503 -0.00049527735 0.34043735
-0.011827685 0.00033711642 0.33972147
0.1605247 -0.082649797 0.33672771
0.15907538 -0.081161544 0.33683357
0.15732107 -0.080077007 0.33770779
-0.0093778074 -0.0040753707 0.34060928
-0.010884382 -0.0029618256 0.34021187
-0.012816064 -0.0020516552 0.3396768
0.16017216 -0.08364632 0.33670869
0.15819934 -0.08317107 0.33691928
0.15593158 -0.082537919 0.33769569
0.15418637 -0.082414351 0.33777732
-0.0095727071 -0.0060727522 0.34056762
-0.011960715 -0.0051507168 0.34012842
-0.013799421 -0.0043113902 0.33963493
0.15675281 -0.085827246 0.33668563
0.15489405 -0.084697112 0.33736685
0.15341783 -0.08391317 0.33775032
-0.013344467 -0.0074175708 0.34026212
-0.015345924 -0.0066143759 0.33959606
-0.016742438 -0.0060984455 0.33961681
0.15774387 -0.089512855 0.33659914
0.15587658 -0.088193215 0.33678359
0.15376267 -0.087123565 0.33766425
0.15294652 -0.08536122 0.33772239
-0.014557444 -0.010147028 0.34023783
-0.015947789 -0.0090020299 0.33954868
0.15709126 -0.091370255 0.33656365
0.15492232 -0.090384707 0.33660007
0.15294716 -0.08953242 0.33740816
-0.015433297 -0.012304418 0.3402178
-0.017314591 -0.011609271 0.33950201
-0.02369903 -0.0094983988 0.33959204
-0.024944313 -0.0089444667 0.34016836
0.15585488 -0.093623929 0.33652365
0.1537604 -0.092980504 0.3365522
0.15180476 -0.09236224 0.33714336
-0.014982201 -0.015710574 0.34039739
-0.01644145 -0.014633063 0.34019989
-0.018255994 -0.013584532 0.33946595
-0.023958847 -0.010113262 0.33958057
-0.02578783 -0.010291561 0.33962294
0.15433159 -0.096526243 0.33647162
0.15272088 -0.095335916 0.33650863
0.15068628 -0.094137758 0.33725178
-0.015720211 -0.017988427 0.34035334
-0.017409265 -0.016924584 0.34024167
-0.019249782 -0.016497927 0.33949825
-0.025660962 -0.013702229 0.339515
-0.026408792 -0.013035879 0.33953467
0.15344083 -0.098370343 0.33643806
0.1516525 -0.097617567 0.33646685
0.14936595 -0.096710779 0.33702475
0.14782861 -0.096066982 0.3375271
-0.016643047 -0.019876394 0.34031904
-0.018530764 -0.019393627 0.34017047
-0.020115994 -0.018327685 0.33953452
-0.027041867 -0.014272276 0.33951235
0.15227328 -0.10059263 0.33639824
0.15063021 -0.099882148 0.33642513
0.14833388 -0.098926857 0.33711454
0.1466475 -0.098377869 0.33748546
-0.019582123 -0.021749314 0.33989209
-0.02077046 -0.020596275 0.3393321
0.15125567 -0.10189052 0.33637729
0.14934392 -0.10204452 0.33638743
0.14727128 -0.10126341 0.33695823
0.14560574 -0.10042686 0.33744857
-0.019096091 -0.025182832 0.3402217
-0.020503417 -0.024138931 0.33959877
-0.022478111 -0.024372004 0.33926257
0.14840031 -0.10468945 0.33633697
0.14606357 -0.1036064 0.33677924
0.14422281 -0.10316621 0.33739913
-0.019561179 -0.027774043 0.34016901
-0.021560669 -0.026600165 0.33957779
-0.023321107 -0.025750611 0.3392387
0.14709592 -0.10674408 0.33630171
0.14495027 -0.1058792 0.33634928
0.14264315 -0.10510738 0.33733642
0.14065868 -0.10531086 0.33737773
-0.019033536 -0.030538453 0.34010574
-0.020403884 -0.030048171 0.3401258
-0.022733413 -0.028904431 0.33962128
-0.024116851 -0.027972884 0.33919632
0.14584583 -0.10900541 0.33626163
0.14383732 -0.10829069 0.3362911
0.14138564 -0.10722415 0.33678693
0.13987908 -0.10651931 0.33735704
-0.021589689 -0.032294482 0.34008563
-0.023806244 -0.031296797 0.33949366
-0.025320135 -0.030552013 0.33914906
0.14427212 -0.11119486 0.33622527
0.14272663 -0.11070585 0.33624679
0.14022931 -0.10953131 0.33651176
0.13863653 -0.10878858 0.33731681
-0.022730261 -0.034656912 0.33989763
-0.024787657 -0.033642285 0.33918008
-0.025967747 -0.032147426 0.33911917
0.14349419 -0.11277956 0.33619654
0.14151362 -0.11284457 0.33620906
0.13914011 -0.11181732 0.33645052
0.13702817 -0.11112644 0.33727753
-0.022560745 -0.038810246 0.33995187
-0.023801394 -0.036992043 0.33967534
-0.025299981 -0.035999451 0.33903149
0.14016342 -0.1151356 0.33616906
0.13814655 -0.11426468 0.33621565
0.13598099 -0.11326787 0.33698103
0.13422307 -0.1128168 0.33726066
-0.023032069 -0.040550224 0.33973008
-0.024635926 -0.039441433 0.33917487
-0.026115529 -0.038525231 0.33898261
0.13904968 -0.11691329 0.33613834
0.13724042 -0.11627305 0.33616489
0.13467899 -0.11545505 0.33633682
0.13289 -0.11496142 0.33710179
-0.021826677 -0.044221692 0.33982998
-0.023665197 -0.042801432 0.33962333
-0.025355957 -0.041935761 0.33890378
0.13332179 -0.11773777 0.33616063
0.13148764 -0.11691596 0.33681622
0.12971263 -0.11682604 0.33720568
-0.022389732 -0.046174847 0.33977476
-0.024517134 -0.045176744 0.33928686
-0.026212469 -0.044356924 0.3388575
0.13195233 -0.12005097 0.33612025
0.13028711 -0.11923924 0.33648282
0.12864591 -0.11870949 0.33717245
-0.021643326 -0.049852531 0.3397072
-0.02322837 -0.04866153 0.33922461
-0.025418177 -0.047458768 0.33880204
-0.026753359 -0.046113253 0.33882332
0.1329138 -0.12306148 0.33604854
0.13139075 -0.12272416 0.33606657
0.12919509 -0.12162586 0.33619258
0.12697527 -0.12081295 0.33686328
0.1251283 -0.12072641 0.33715349
-0.022166133 -0.052233502 0.33965945
-0.024191543 -0.051132765 0.33914167
-0.025607914 -0.049579598 0.33874053
0.13003415 -0.1246224 0.33603498
0.12818101 -0.12395315 0.33606246
0.1258267 -0.12298101 0.33620283
0.12349905 -0.12238383 0.33712915
-0.021359228 -0.055489101 0.33958364
-0.022962064 -0.054502655 0.339616
-0.024669901 -0.0536879 0.33932981
0.1289012 -0.12701488 0.33599132
0.12797701 -0.12650806 0.33600861
0.12426898 -0.12479977 0.33607149
0.12226395 -0.12422872 0.33683032
0.12009116 -0.12402238 0.33711752
-0.022059858 -0.057900704 0.33953643
-0.02418071 -0.056928676 0.33921039
-0.025571279 -0.055871975 0.33870137
0.12274319 -0.12661356 0.33604288
0.12100929 -0.12651719 0.33621937
0.11873303 -0.12560831 0.33709276
0.1170459 -0.12549154 0.33710712
-0.021425948 -0.061694253 0.33945015
-0.023073666 -0.06041006 0.33922344
-0.024655201 -0.059161566 0.33869007
0.1216305 -0.13003744 0.33597681
0.12005282 -0.12881574 0.33605906
0.11772349 -0.12789841 0.3367776
0.11576042 -0.12706614 0.33708215
-0.020316184 -0.065023348 0.33937061
-0.021763489 -0.063773096 0.3393915
-0.02372665 -0.062666327 0.33884797
-0.024812311 -0.061073989 0.33848697
0.12097459 -0.13155732 0.33594859
0.1192604 -0.13077569 0.33597749
0.11673674 -0.12978761 0.33603644
0.11451346 -0.1291703 0.336712
0.11251079 -0.1291559 0.33705974
-0.020731352 -0.067115515 0.33932838
-0.022840053 -0.065962978 0.3390184
-0.024595685 -0.064992331 0.3384243
0.11512106 -0.13106145 0.33600011
0.11312602 -0.13093685 0.33608583
0.1109333 -0.13051941 0.33665231
0.10905454 -0.13047102 0.33705544
-0.01985728 -0.070958912 0.3392393
-0.021523163 -0.069624573 0.33901429
-0.023501322 -0.068193994 0.33851835
-0.024906144 -0.06676735 0.33836478
0.1114528 -0.13230126 0.33599898
0.10955399 -0.13242024 0.33603022
0.10757317 -0.13192335 0.3367393
-0.018603459 -0.07473965 0.339149
-0.020301156 -0.073106684 0.33883235
-0.022118688 -0.071857713 0.33832335
-0.023532137 -0.070267037 0.33827969
0.10808581 -0.1341958 0.33598158
0.10626808 -0.13391945 0.33638194
0.1041934 -0.1334632 0.3369936
-0.017099097 -0.077528372 0.3390784
-0.019010976 -0.076461151 0.33894128
-0.021006033 -0.075261936 0.33834887
-0.022571497 -0.073966831 0.33819315
0.10774791 -0.13851497 0.33589077
0.10495892 -0.13594255 0.33596584
0.1028806 -0.13534415 0.33628082
0.1006371 -0.13446803 0.33685049
0.098823726 -0.13416527 0.33704719
-0.016218327 -0.081166372 0.33899367
-0.01784277 -0.079931721 0.3387183
-0.01962249 -0.078559488 0.33837047
-0.021193169 -0.077064082 0.33811671
0.1068903 -0.13915341 0.33588299
0.10364917 -0.13859814 0.33591768
0.101761 -0.13765666 0.33595124
0.099339597 -0.13644081 0.33614931
0.097140431 -0.13579288 0.33688942
0.094692864 -0.13540305 0.33704928
-0.012889184 -0.086198568 0.33886191
-0.014466815 -0.085266002 0.338893
-0.016453162 -0.083496675 0.33856142
-0.018427387 -0.082189761 0.33808991
-0.019694388 -0.080635458 0.33802918
0.10306992 -0.14037567 0.33588329
0.10088882 -0.13880467 0.33593237
0.098213702 -0.13831578 0.3359617
0.095993929 -0.13768579 0.33606333
0.093595341 -0.13678937 0.33657822
0.091544792 -0.13634071 0.33705103
-0.011624075 -0.089403056 0.33878395
-0.012995645 -0.087998688 0.33862674
-0.015010282 -0.086812988 0.33837023
-0.017067626 -0.085564859 0.33803576
-0.018557206 -0.084026292 0.33794808
0.094980724 -0.13914672 0.33596626
0.092400953 -0.13886715 0.33599043
0.090139546 -0.13806123 0.33655608
0.087770849 -0.13773328 0.33704731
0.086148098 -0.13733344 0.33706731
-0.0080974698 -0.094021559 0.33865967
-0.0095694959 -0.092800014 0.33869633
-0.011699289 -0.091369428 0.33864817
-0.013755254 -0.090245642 0.33804139
-0.015721627 -0.088866435 0.33782396
-0.017092302 -0.087453023 0.33786395
0.090835571 -0.14051235 0.33596572
0.088944547 -0.14029595 0.33599988
0.086748794 -0.13931005 0.33659178
0.084741622 -0.13884661 0.33704451
-0.0084048659 -0.095825791 0.33856887
-0.010007851 -0.094887726 0.33824676
-0.012576059 -0.093618751 0.33797491
-0.014005125 -0.092543125 0.33773255
0.087701067 -0.14149627 0.33596638
0.085597418 -0.1411991 0.33601034
0.083434395 -0.1406271 0.33631361
0.080496073 -0.13967919 0.33668873
0.078582771 -0.13916872 0.33708051
-0.0030472726 -0.10222277 0.33844748
-0.0045575872 -0.10106385 0.33848304
-0.0067990199 -0.099712439 0.33852783
-0.0090066046 -0.098282665 0.33798951
-0.011059925 -0.09690582 0.33764237
-0.012653358 -0.095874853 0.33765122
0.081818216 -0.14259699 0.33598381
0.079713851 -0.14180836 0.33601555
0.077439025 -0.1407983 0.3364532
0.075264722 -0.14008081 0.33694831
0.072437249 -0.13935135 0.3371194
0.070870258 -0.13895983 0.33713886
0.00057590008 -0.10656859 0.33832842
-0.00085824728 -0.10542995 0.33836302
-0.002952449 -0.10400867 0.33840823
-0.0053470507 -0.10277528 0.33835685
-0.0075568631 -0.10168225 0.33784348
-0.0092516318 -0.10045594 0.33757636
0.080262497 -0.14497049 0.33594337
0.079004318 -0.14372551 0.33597904
0.076409765 -0.14263047 0.33602083
0.074044064 -0.1419329 0.33616835
0.0717066 -0.14088708 0.33642462
0.069202296 -0.1402144 0.33684742
0.066897921 -0.13940053 0.33715707
0.064465933 -0.1386508 0.33719021
0.0046188831 -0.11108811 0.33820269
0.0028832033 -0.10973449 0.33824402
0.00061795115 -0.10843752 0.3379719
-0.0015533343 -0.10735381 0.33818534
-0.0039988458 -0.10628036 0.33819535
-0.0061544031 -0.10507133 0.33787814
-0.0079867318 -0.1037703 0.33744833
0.079508089 -0.14645599 0.33591655
0.078739308 -0.146248 0.33592641
0.072761655 -0.1432026 0.33603382
0.070765071 -0.14253999 0.33606213
0.068212539 -0.14178236 0.33619073
0.065973252 -0.1409851 0.33641675
0.063485458 -0.14000137 0.33674559
0.061040163 -0.13925178 0.33715191
0.058538098 -0.13854817 0.33723384
0.056713369 -0.1380651 0.33725697
0.009948574 -0.11684272 0.33804131
0.0092345923 -0.11651459 0.33805338
0.0060802996 -0.11437321 0.33812159
0.0044773892 -0.11297715 0.3377324
0.0019706637 -0.11180764 0.33798075
0.00012895465 -0.11058581 0.3373768
-0.0024284869 -0.10893527 0.33744103
-0.004377909 -0.10788111 0.33772165
-0.0059596896 -0.10691036 0.3373664
0.06477005 -0.14234081 0.33610824
0.062320516 -0.14201923 0.33613238
0.059953507 -0.14119217 0.33626267
0.057734955 -0.14027071 0.33685887
0.055294801 -0.13943182 0.33681419
0.052492619 -0.1386438 0.33701304
0.050341964 -0.13768427 0.33730966
0.04868678 -0.1372973 0.33732957
0.044701342 -0.13549457 0.33739629
0.043117411 -0.13465287 0.33742544
0.040550463 -0.13354041 0.3374674
0.038766429 -0.13271521 0.33749768
0.0098133497 -0.11875315 0.33800107
0.0078748353 -0.11756755 0.33794141
0.0057648048 -0.11641893 0.3380796
0.0033027083 -0.11525328 0.33748192
0.0012475699 -0.11332028 0.33717781
-0.00017712265 -0.11255078 0.33720431
0.058458894 -0.14236605 0.33615175
0.056762956 -0.141862 0.33617446
0.05430387 -0.14126645 0.33620459
0.051794127 -0.14010827 0.33633971
0.049513109 -0.13926275 0.33657241
0.047087103 -0.13848151 0.33691248
0.044665001 -0.13740261 0.33716601
0.042391606 -0.13621767 0.33710122
0.03997498 -0.1350207 0.336858
0.037660357 -0.13399693 0.33707228
0.035227008 -0.13324547 0.33747169
0.032665476 -0.13195592 0.33755663
0.030522741 -0.1310499 0.33759117
0.028829362 -0.13077734 0.33760884
0.010366738 -0.1225592 0.33691481
0.0089296438 -0.12098171 0.33760688
0.0072857775 -0.11960928 0.337255
0.0048372373 -0.11828728 0.33778998
0.0021262839 -0.11765185 0.33776253
0.00080487132 -0.11690289 0.33710358
0.048035655 -0.14032941 0.33626842
0.04648748 -0.13977854 0.3362911
0.043683384 -0.1388009 0.33633184
0.041601188 -0.1380049 0.33636358
0.039187614 -0.13663194 0.33641005
0.036584891 -0.13587782 0.33644453
0.034198258 -0.13496809 0.33682752
0.031846225 -0.13406856 0.33745784
0.029454958 -0.13300826 0.33711436
0.027768813 -0.13228814 0.33676207
0.010272864 -0.12311266 0.33690351
0.0086104795 -0.12263548 0.33692548
0.0072559938 -0.12158854 0.33695745
0.001216583 -0.11910319 0.33746076
0.032853402 -0.13637342 0.33645976
0.031012502 -0.13590527 0.33669341
0.029207319 -0.13473892 0.33656597
0.027381971 -0.13359122 0.33655798
0.11380082 0.033013862 0.34154999
0.12474565 0.025431249 0.34136885
0.1232079 0.027225766 0.3413595
0.12104888 0.028446954 0.34140089
0.11731411 0.029313605 0.34144562
0.11579315 0.02961063 0.34204617
0.11368221 0.031216521 0.34169024
0.11153026 0.031667482 0.34153685
0.13559921 0.017414998 0.34106132
0.1335341 0.018781845 0.34110519
0.13121919 0.019975539 0.34123808
0.12911826 0.020910438 0.34118196
0.12639534 0.022049282 0.34122556
0.12450328 0.023620334 0.34183139
0.12307344 0.023932327 0.3422896
0.11822063 0.025127124 0.34268266
0.116855 0.026306253 0.34251755
0.1149362 0.0278471 0.34298036
0.11248949 0.028900128 0.34273946
0.1105306 0.030018251 0.34234977
0.087632522 0.039171714 0.34286579
0.086433783 0.040720727 0.34247506
0.084697217 0.040852118 0.34252241
0.078695126 0.043237757 0.34201562
0.14112517 0.011959344 0.34090501
0.13945289 0.013072975 0.34094071
0.13728094 0.014308967 0.34098256
0.13515612 0.01566175 0.34115705
0.13290453 0.016727056 0.34148794
0.13040699 0.017957818 0.34208229
0.1279923 0.018997189 0.34206244
0.12567313 0.020062927 0.34205061
0.12353595 0.021254349 0.34242871
0.12099305 0.022346858 0.3432537
0.11852075 0.023277383 0.34328955
0.11639747 0.024469014 0.34320301
0.11402909 0.025498938 0.34338671
0.11158544 0.026654158 0.34340164
0.10918805 0.027623411 0.34346634
0.10725388 0.027774017 0.34348318
0.10080996 0.030345369 0.34358361
0.098858953 0.031392444 0.34361985
0.097214527 0.03226098 0.34365007
0.094127297 0.034310047 0.34371576
0.09247034 0.035218265 0.3437469
0.09018039 0.035882261 0.34377721
0.087810427 0.037330616 0.34346291
0.085564531 0.038460594 0.34319386
0.083292902 0.039615851 0.3428258
0.081080221 0.039958317 0.34275198
0.078333169 0.04177032 0.34198654
0.076041482 0.042259436 0.34201309
0.073994361 0.04290681 0.34204134
0.1430282 0.0086990558 0.34082139
0.14111137 0.01014185 0.34086591
0.13872121 0.011382408 0.34129053
0.13644266 0.012433466 0.34194833
0.13417226 0.013399906 0.34217429
0.1317988 0.014448773 0.34234369
0.12952799 0.015655581 0.34283006
0.12701991 0.01672053 0.34310663
0.12455632 0.01785272 0.34314823
0.12224871 0.018973622 0.34318852
0.11992033 0.020184767 0.34323093
0.11772938 0.021122526 0.34326646
0.11539248 0.022494894 0.34331238
0.11326201 0.023569729 0.34335044
0.11058585 0.024620619 0.34339178
0.10841532 0.02609412 0.34343874
0.10629346 0.027000409 0.34347314
0.10064258 0.02885684 0.34355262
0.098819643 0.029740784 0.34358439
0.097136386 0.030872468 0.34362057
0.093139119 0.032549065 0.34368467
0.091515198 0.033037219 0.34370652
0.08919654 0.034102794 0.34374568
0.086877905 0.035168361 0.34378487
0.084559239 0.036233936 0.34382403
0.0822099 0.037310649 0.34344262
0.079776511 0.03837366 0.34295422
0.07735762 0.039542053 0.34247893
0.074999638 0.040530715 0.34233457
0.07277099 0.041544925 0.34205177
0.070180662 0.04216196 0.34205189
0.067921296 0.042867843 0.34208292
0.14824528 0.0030191876 0.34066239
0.14689556 0.0042567104 0.34069854
0.14463893 0.0054240935 0.34089956
0.14241669 0.0067961067 0.34139889
0.1400865 0.0080285221 0.34149441
0.13769157 0.0089382231 0.34203991
0.13541964 0.01008537 0.34280035
0.1330547 0.011138894 0.34294406
0.13073604 0.012204476 0.34298325
0.12859942 0.013298072 0.34302175
0.12620002 0.015056942 0.34307647
0.12483001 0.016030278 0.34310707
0.11844978 0.019079406 0.3432174
0.11787011 0.019345809 0.34322721
0.099610552 0.027737234 0.34353572
0.090612181 0.031794552 0.34368607
0.088236071 0.032555003 0.34371901
0.08578752 0.032937262 0.34374434
0.083493114 0.03391562 0.34378144
0.081174389 0.034981225 0.34382063
0.07868126 0.036153037 0.34348989
0.076261245 0.037236344 0.34290358
0.073953897 0.038296733 0.34294257
0.071692996 0.039374989 0.34253988
0.069241822 0.04042368 0.34233755
0.066846825 0.041416835 0.34221193
0.064446725 0.042173069 0.34209216
0.062226079 0.042579476 0.34211642
0.14978424 -0.00045932829 0.34057665
0.14822781 0.0010969341 0.34062108
0.14601362 0.0021945685 0.34085765
0.14381969 0.003286317 0.34202874
0.14152464 0.0043734163 0.34255144
0.13900572 0.0053846799 0.34277838
0.13658109 0.006554272 0.34282053
0.13461947 0.0078862123 0.34286296
0.13210531 0.009761475 0.34292102
0.13008857 0.010542043 0.34295192
0.12845762 0.011601649 0.3429862
0.084342539 0.03194556 0.3437331
0.082200624 0.031971011 0.34374854
0.080041647 0.032517981 0.34377539
0.077540264 0.033732731 0.34372711
0.0751305 0.034839194 0.34355605
0.07301192 0.035926793 0.34330648
0.07045728 0.036940504 0.34340024
0.068235874 0.037894573 0.34302646
0.06575457 0.03916138 0.34297141
0.063365236 0.040248591 0.34263977
0.061094601 0.041123535 0.34220839
0.058705632 0.041598525 0.34211984
0.15091202 -0.0039709397 0.34049296
0.14951363 -0.0024500489 0.34062129
0.14725684 -0.0012919866 0.34115994
0.14497145 -0.00011559948 0.34151796
0.14269742 0.00074790791 0.34253135
0.14041162 0.0017901883 0.342691
0.1382248 0.0033217892 0.34273931
0.13635048 0.0045341998 0.34277862
0.08074154 0.029300246 0.34370109
0.079222545 0.030455571 0.34373662
0.076324634 0.031382713 0.34377685
0.074063689 0.032357428 0.34381366
0.071657717 0.033366922 0.34385222
0.069344282 0.034450244 0.34389174
0.067074791 0.035595197 0.34372401
0.06465672 0.036706414 0.34359047
0.062256008 0.037627053 0.34314677
0.05986483 0.038917813 0.34298182
0.057531763 0.039884772 0.34243235
0.055020779 0.040611584 0.34212425
0.052798338 0.041340251 0.34215552
0.15226892 -0.0065643266 0.34042752
0.15089886 -0.0058709905 0.34054169
0.14886467 -0.0044790804 0.34102982
0.1462785 -0.0035958327 0.34235328
0.14391461 -0.002646897 0.34255493
0.1416297 -0.0015583858 0.34261024
0.1399084 -0.00029655546 0.34264949
0.075080201 0.029676069 0.34374875
0.074013814 0.030607607 0.34377635
0.070200071 0.031414103 0.34382027
0.068493679 0.032361928 0.34385264
0.065983377 0.033490937 0.34389451
0.063640811 0.034263004 0.34392753
0.06124321 0.035462398 0.34373638
0.058878776 0.036366928 0.34315485
0.056486592 0.037647057 0.34300569
0.054182127 0.038781535 0.34278718
0.051823147 0.039638814 0.3423689
0.049659133 0.039978001 0.34214804
0.15572935 -0.011891477 0.34028843
0.15442586 -0.011147596 0.34031361
0.15169181 -0.0094432384 0.34046039
0.14989926 -0.0081129633 0.34128755
0.14752108 -0.0070777014 0.34234399
0.1452433 -0.0059921667 0.34248936
0.14326626 -0.0045159608 0.34253502
0.14163837 -0.0032785088 0.34257317
0.062381051 0.032612238 0.34390071
0.060256042 0.033010263 0.34392413
0.057791889 0.03422555 0.34390265
0.055218156 0.035163637 0.343537
0.05304502 0.036260631 0.34329116
0.050651636 0.037481267 0.34280515
0.048469894 0.038482588 0.34215739
0.046740949 0.038726751 0.34214139
0.15710741 -0.01513188 0.34020889
0.15569462 -0.013777871 0.34031254
0.15349531 -0.012639511 0.34046862
0.15118778 -0.011548176 0.34128991
0.14889352 -0.010411348 0.34214637
0.14663722 -0.0091912523 0.34241059
0.14526105 -0.0080295838 0.34244537
0.058815584 0.030914094 0.34388897
0.056726329 0.031824108 0.34392318
0.05426272 0.032956284 0.34396479
0.051944062 0.034021873 0.34400398
0.049610406 0.03513689 0.34346297
0.047231156 0.036272202 0.34259808
0.045244645 0.036823016 0.34216207
0.15832433 -0.01884862 0.34012023
0.15698087 -0.017400436 0.34016088
0.15491076 -0.016142897 0.34083799
0.15258405 -0.015026122 0.34140497
0.15015498 -0.013839394 0.34213507
0.14778951 -0.012765147 0.34232545
0.057943866 0.029509354 0.34386483
0.055993292 0.030230235 0.34389392
0.053080283 0.030966077 0.3439301
0.050877884 0.031703483 0.34396139
0.048494823 0.032892775 0.34390512
0.046172038 0.033765819 0.3432793
0.043925662 0.034883443 0.34290454
0.041157044 0.035832856 0.34239075
0.038924389 0.036583792 0.34214973
0.037206054 0.036859322 0.34216765
0.15942498 -0.022251228 0.3400391
0.15820423 -0.020770049 0.34007964
0.15604207 -0.0196684 0.34046528
0.15400249 -0.018456509 0.34115914
0.151568 -0.017457245 0.34216452
0.14919701 -0.016204037 0.34224144
0.147414 -0.014615145 0.3422882
0.04928273 0.029920813 0.34393409
0.047492996 0.03045075 0.34395799
0.045075119 0.031553064 0.34371868
0.042634293 0.03240421 0.34320796
0.040324815 0.033577878 0.34302932
0.037909497 0.034727845 0.34280381
0.035857864 0.035306003 0.34221175
0.033863503 0.035336446 0.34215811
0.15929347 -0.024060916 0.34000102
0.15754101 -0.023144335 0.34023654
0.15473881 -0.021908883 0.34163517
0.15271777 -0.020904267 0.34205991
0.15067437 -0.019638775 0.34215701
0.14902478 -0.018187089 0.34219989
0.048064329 0.028257493 0.34390673
0.046409674 0.028335329 0.3439199
0.044031955 0.029097628 0.34395295
0.04171304 0.030139055 0.3439779
0.039383166 0.031088468 0.34329897
0.036874589 0.032262031 0.34281024
0.034643881 0.033318836 0.34231174
0.032283068 0.034343284 0.34214774
0.030266896 0.034757268 0.34217075
0.16020399 -0.027757218 0.33991489
0.15865849 -0.026425742 0.34034893
0.15629223 -0.025405224 0.34121418
0.15393679 -0.024413889 0.34201583
0.15159664 -0.023359159 0.34207028
0.15004724 -0.022730265 0.34209472
0.042201351 0.026994754 0.34392038
0.040590107 0.027655456 0.34394586
0.038227677 0.028866816 0.34369361
0.035866942 0.029878344 0.34314445
0.033503808 0.031141143 0.34295937
0.031267006 0.032078434 0.34238812
0.028985687 0.033138398 0.34214476
0.16127792 -0.031371761 0.33982944
0.15999123 -0.029893443 0.34028608
0.15770215 -0.028814888 0.34089455
0.15526584 -0.027782504 0.34119564
0.15267237 -0.026773529 0.34198913
0.15105519 -0.02557263 0.34202632
0.041449651 0.024961937 0.34388179
0.03951212 0.025537547 0.34390768
0.037205316 0.026402678 0.34394246
0.03470891 0.027636874 0.34386152
0.03251411 0.028597046 0.34314933
0.030038949 0.029879864 0.34278169
0.027654186 0.030875739 0.3421174
0.025202371 0.031558339 0.34213707
0.023389146 0.031459738 0.34214756
0.16224521 -0.035018548 0.33974394
0.16084324 -0.033540875 0.33978567
0.15899843 -0.032287039 0.34052035
0.15651312 -0.031194136 0.34102187
0.15420838 -0.030078446 0.34149921
0.15212235 -0.028743457 0.34195048
0.15080416 -0.027499968 0.34198654
0.035889894 0.024305727 0.3439064
0.0336756 0.025216457 0.34394151
0.031219047 0.026399348 0.34365526
0.028994106 0.027519312 0.3430239
0.026551478 0.028499115 0.34234932
0.024086781 0.029574867 0.34210208
0.0219105 0.029960003 0.34212556
0.16202033 -0.036787443 0.3397074
0.16012926 -0.035750747 0.33981547
0.15782779 -0.034515303 0.34096411
0.15555535 -0.033430062 0.34167609
0.15381122 -0.032158259 0.341865
0.035343431 0.022226762 0.34386536
0.032623999 0.023335833 0.34390825
0.030141186 0.024053801 0.34392571
0.027809672 0.025183585 0.34347042
0.02530542 0.026250813 0.34283614
0.02307868 0.027187195 0.34213009
0.020735063 0.028334294 0.34209871
0.019311521 0.028640885 0.34211522
0.16242209 -0.040429916 0.33962595
0.1613346 -0.039145019 0.33966133
0.15900186 -0.038089041 0.34003389
0.15658614 -0.03713382 0.34145755
0.15523809 -0.035926539 0.34177375
0.028602622 0.022583161 0.34392014
0.026736703 0.022843417 0.34393874
0.024429381 0.02373777 0.34332415
0.021983497 0.024888415 0.34250414
0.0196876 0.026013222 0.34207132
0.017900351 0.026407871 0.34207693
0.16185948 -0.042770889 0.33957943
0.16018765 -0.041202117 0.33997923
0.15791252 -0.040440779 0.34112754
0.15596703 -0.039158449 0.34169891
0.026952945 0.018777791 0.34384957
0.025395982 0.020242553 0.34389198
0.023241505 0.021476518 0.34382114
0.021006539 0.022366535 0.34310004
0.018865764 0.023624528 0.34269786
0.016066212 0.024661634 0.34209126
0.014355872 0.024884742 0.34206879
0.16284253 -0.045941621 0.33950412
0.16148978 -0.045061182 0.33953258
0.15923974 -0.04390645 0.34028187
0.15685591 -0.042907469 0.34139752
0.15582204 -0.041273259 0.34165436
0.026315078 0.01688553 0.34381315
0.024479002 0.017848421 0.34383133
0.022127386 0.018919494 0.34384009
0.019995306 0.020113911 0.3431243
0.017551433 0.021250185 0.34296846
0.015292618 0.02218597 0.34229168
0.013384473 0.023096506 0.34203699
0.16013736 -0.047065865 0.3395226
0.15835074 -0.046309907 0.34041309
0.15639193 -0.044661202 0.34142339
0.023548141 0.015847828 0.34381005
0.021094348 0.016823519 0.34383008
0.01880743 0.017835665 0.34355271
0.016539592 0.018805046 0.34304783
0.014098614 0.019986909 0.34254014
0.011796921 0.020778272 0.34199807
0.0097475424 0.020695869 0.34201056
0.16103715 -0.051032953 0.33940691
0.15936796 -0.049728636 0.34021911
0.15734735 -0.048572626 0.34131071
0.15623163 -0.047253616 0.34152246
0.019708734 0.014330562 0.34380412
0.017725829 0.015345555 0.34383985
0.015287623 0.016554195 0.34354967
0.013038661 0.017589998 0.34289399
0.010767803 0.018624242 0.34214059
0.0087567121 0.019297276 0.34198731
0.16153753 -0.054449361 0.33932966
0.16053998 -0.052992262 0.3393681
0.15848112 -0.051978 0.34083864
0.15692487 -0.050994836 0.34143692
0.15364847 -0.050041482 0.34148031
0.018779214 0.011910133 0.34375837
0.016659684 0.013027191 0.34379727
0.014274627 0.014153983 0.34376577
0.012066226 0.015017461 0.34301898
0.0096547678 0.016308922 0.34220237
0.0075348765 0.017223541 0.3419511
0.16117951 -0.056613836 0.33928549
0.15966147 -0.055448301 0.33991873
0.15734011 -0.054480847 0.34080318
0.15536416 -0.053466182 0.34139439
0.018108279 0.010363262 0.3437297
0.015517332 0.010856718 0.34375843
0.013246473 0.011819143 0.34379503
0.010974053 0.012777533 0.34320658
0.0083632059 0.014003545 0.34239736
0.0060938969 0.015030939 0.34191388
0.16055721 -0.058917806 0.3396152
0.15858588 -0.057905316 0.34055147
0.15635028 -0.056731254 0.34122476
0.15498751 -0.055441871 0.34135446
0.014223423 0.0085759982 0.34371823
0.012208696 0.0094561018 0.34375131
0.0097801723 0.010563847 0.34347573
0.007258907 0.01164721 0.34255719
0.0048701093 0.012653209 0.34190139
0.0030043647 0.013199534 0.34189591
0.1612159 -0.062267698 0.33916324
0.1598873 -0.061312489 0.33963776
0.15746935 -0.060204126 0.34068769
0.15513919 -0.059248537 0.34127119
0.15282793 -0.059036493 0.34129193
0.15096754 -0.058700446 0.34131223
0.011075918 0.0069928728 0.34370607
0.0086123608 0.0081250295 0.34374771
0.0063201636 0.0092932172 0.3429794
0.0039314777 0.01031905 0.34204537
0.0025393516 0.011598695 0.34186462
0.16036952 -0.064514801 0.33912066
0.15878245 -0.06366954 0.3396897
0.15639576 -0.062681101 0.34057304
0.15400806 -0.061705738 0.34122607
0.15162864 -0.060603213 0.34115541
0.15007904 -0.059903715 0.34129241
0.010322765 0.0051787533 0.34367219
0.0073846318 0.0059784502 0.34370995
0.0051032901 0.006867025 0.34307459
0.0026540458 0.008061178 0.34248549
0.00045932084 0.0087424405 0.3418175
-0.0013202056 0.0090272389 0.34183604
0.15958986 -0.066624016 0.33914959
0.15776023 -0.066117071 0.33982462
0.15532079 -0.065098181 0.34083819
0.15294813 -0.063979127 0.34118444
0.15109771 -0.062683649 0.34122533
0.14976813 -0.061308581 0.34126434
0.0054002553 0.0040848814 0.34368303
0.0038972422 0.0045078993 0.34329996
0.0016600341 0.0055519901 0.3420499
-0.00033583492 0.0072365515 0.34179056
-0.0015089288 0.0083144531 0.34182197
0.16807544 -0.07500843 0.33884043
0.15843827 -0.069668218 0.33902296
0.15663734 -0.068523422 0.33975494
0.15422958 -0.067403205 0.34067106
0.15258293 -0.066547833 0.3411316
0.0069075376 0.00060059875 0.34359729
0.0053112283 0.00089906156 0.34361482
0.0027585626 0.0022107512 0.34342408
0.00055061281 0.0032768622 0.34234786
-0.0017341226 0.0038246177 0.34190676
-0.0037660301 0.0041623637 0.34174818
0.16788903 -0.075791799 0.33882484
0.15764332 -0.071384504 0.33899146
0.1554274 -0.070834637 0.33973783
0.15317214 -0.06971848 0.34098551
0.15177439 -0.068724804 0.34109029
0.004120484 -0.00048222765 0.34359336
0.0017620251 -6.5919012e-05 0.34353307
