# .PCD v0.7 - Point Cloud Data file format
VERSION 0.7
FIELDS x y z
SIZE 4 4 4
TYPE F F F
COUNT 1 1 1
WIDTH 1335
HEIGHT 1
VIEWPOINT 0 0 0 1 0 0 0
POINTS 1335
DATA ascii
0.019784756 -0.010290864 0.2173605
-0.067056447 -0.11848582 0.21704093
-0.063847356 -0.11571839 0.21703136
-0.062276687 -0.1141437 0.21730763
-0.06065698 -0.11227623 0.21789689
-0.058750771 -0.11101457 0.21802156
0.015163347 -0.012693722 0.21840216
0.016434334 -0.01067978 0.21825565
0.017835416 -0.0085819289 0.21788627
0.018902324 -0.0065477658 0.2176054
0.01945021 -0.0044948654 0.21746752
-0.06771373 -0.11857604 0.21705122
-0.067401052 -0.11678469 0.21707681
-0.065907069 -0.11460201 0.21708806
-0.064413294 -0.11268065 0.21784462
-0.062580384 -0.11132776 0.21808523
0.015150607 -0.0094964355 0.21845821
0.016323723 -0.007065447 0.21847947
0.017545901 -0.0047892155 0.21827611
0.018476307 -0.0029532351 0.21787953
-0.071150929 -0.11659263 0.21714789
-0.069610804 -0.11504154 0.21716365
-0.067961812 -0.11318124 0.21764998
-0.066509865 -0.11195644 0.21814525
0.015745692 -0.0032137018 0.21855704
0.016851068 -0.0013122968 0.21857017
0.018040009 0.00081044994 0.21786346
0.018929094 0.0027323775 0.21760298
-0.07440263 -0.11672901 0.21720418
-0.07318081 -0.11570465 0.21724302
-0.07155145 -0.11378293 0.21770427
-0.070120446 -0.11226629 0.21820506
0.014938027 -0.0015749242 0.21860021
0.015678264 -5.605258e-05 0.2186133
0.016679741 0.0022335984 0.21831071
0.017743059 0.0043576434 0.2177828
0.017949879 0.0064593647 0.21768567
-0.076636352 -0.11535912 0.21726841
-0.075299643 -0.11406096 0.21770543
-0.073579058 -0.11236929 0.21826561
-0.071956657 -0.11152874 0.21825106
0.01495143 0.0042350758 0.21870132
0.015894517 0.0060332678 0.21830928
0.016930312 0.0080726556 0.21780734
-0.080232464 -0.11583046 0.21732511
-0.07900013 -0.11437967 0.21777278
-0.077425957 -0.1128089 0.21813092
-0.075714834 -0.11193248 0.21831186
0.013722718 0.005660627 0.21874836
0.014326848 0.0076782722 0.21877269
0.015399843 0.0096910037 0.21835615
0.016454324 0.011316352 0.21779741
-0.082630798 -0.11453259 0.21750546
-0.080937773 -0.11316422 0.21831511
-0.078958742 -0.11199643 0.21836929
0.012991689 0.0096876584 0.21883179
0.013702892 0.011268521 0.21871944
0.014428802 0.012984427 0.21806319
-0.086092524 -0.11476556 0.21744947
-0.084716983 -0.11355437 0.21776173
-0.083251424 -0.11213273 0.21844447
0.012123659 0.013430161 0.21891272
0.012720816 0.014832368 0.21837974
0.013946109 0.016914679 0.21794042
-0.088222295 -0.11362703 0.21750788
-0.086828217 -0.11208899 0.21809627
-0.085327238 -0.11105985 0.2185006
0.010444373 0.014856121 0.21896794
0.010847993 0.01643437 0.21878116
0.012158357 0.018389093 0.21816064
0.012611635 0.020011624 0.21801843
-0.091710076 -0.11367853 0.21756986
-0.090388946 -0.11249434 0.21774861
-0.088825859 -0.11079437 0.21846485
0.0098419785 0.018025981 0.21903411
0.010396153 0.020014079 0.21868199
0.011137761 0.021817891 0.21818779
-0.095767759 -0.11338738 0.21764819
-0.094038829 -0.11269075 0.21762924
-0.0921956 -0.11135919 0.21806927
-0.090644374 -0.11020596 0.21861151
0.0083761662 0.021842049 0.21912713
0.0095268935 0.023512935 0.21851994
-0.096016854 -0.11319837 0.21765599
-0.095889717 -0.11118528 0.21780758
-0.094595611 -0.10938138 0.21861257
-0.093565971 -0.10757757 0.21871011
0.0067972168 0.023242956 0.21918008
0.0076710507 0.025226494 0.21884005
0.008523114 0.027097533 0.21844454
-0.097643271 -0.10982428 0.21811935
-0.096516594 -0.10806346 0.21875487
-0.094880007 -0.10712358 0.21874173
0.005768016 0.027085183 0.21918742
0.0068804026 0.028786344 0.21843685
0.0072829276 0.030886745 0.21830431
-0.1018455 -0.109212 0.21783072
-0.10019289 -0.10814638 0.21839549
-0.098865397 -0.10720847 0.21881218
0.0039588585 0.028723983 0.21930516
0.0050353706 0.030505544 0.21870546
0.0062708333 0.032320365 0.2183477
-0.10550068 -0.10914335 0.21789792
-0.10363466 -0.10844897 0.21802165
-0.10236754 -0.10719667 0.21884862
0.0021324754 0.030601526 0.21939263
0.003247045 0.032125868 0.21921474
0.0043529123 0.033946276 0.21846527
-0.10704316 -0.10882366 0.21793143
-0.10575954 -0.10703398 0.21826009
-0.104486 -0.10583963 0.21893753
0.00089983642 0.031805083 0.21943587
0.0012310147 0.033748694 0.21943094
0.0024992675 0.035448313 0.21868557
0.0030525327 0.037002139 0.21848735
-0.10945202 -0.10746372 0.21799868
-0.10802898 -0.10581148 0.21874788
-0.0023998693 0.034318693 0.2195393
-0.001009196 0.035379879 0.2192468
0.0004241243 0.037209272 0.21857913
0.0013140738 0.038830183 0.21855067
-0.11122452 -0.10556487 0.21806376
-0.11017041 -0.10439395 0.21882531
-0.0030796155 0.034982435 0.21956314
-0.0025262982 0.036572516 0.2195809
-0.0017750412 0.038772494 0.21946275
-0.00042106211 0.041008413 0.21864228
-0.11542271 -0.10514851 0.21814673
-0.11364052 -0.10440511 0.21839631
-0.11236668 -0.10320147 0.21912585
-0.0069296956 0.037706479 0.21968016
-0.0055057555 0.038852602 0.21967447
-0.0036547184 0.040405035 0.21962796
-0.0022063181 0.042284764 0.21889812
-0.12079304 -0.10791425 0.21919575
-0.11880345 -0.10653525 0.21841902
-0.11734261 -0.1050313 0.21818356
-0.11583561 -0.1030715 0.21867776
-0.11465688 -0.10159222 0.21919525
-0.0073353574 0.038211584 0.2196963
-0.0067307726 0.039857306 0.21971409
-0.0057895705 0.042009182 0.21973453
-0.0043098405 0.043945417 0.21902727
-0.0042132437 0.046048902 0.21877632
-0.12162787 -0.10724963 0.21922235
-0.12071073 -0.10540298 0.21851449
-0.11944733 -0.10346893 0.21824881
-0.11792405 -0.10150746 0.21893163
-0.11676878 -0.099544458 0.21926914
-0.0067889988 0.043751709 0.21978305
-0.0059982091 0.045590915 0.2191084
-0.0054524392 0.04709629 0.21881695
-0.12239538 -0.10342722 0.21830261
-0.12142369 -0.10194752 0.21831103
-0.11992534 -0.099998333 0.21904023
-0.11841818 -0.098212808 0.21932207
-0.0097903013 0.046308808 0.21988183
-0.0083071962 0.04728432 0.21931498
-0.0074218214 0.048832513 0.21888278
-0.12439998 -0.10226312 0.21835919
-0.12343796 -0.10033388 0.21837553
-0.12206489 -0.098409012 0.21921152
-0.12061299 -0.097436465 0.21937525
-0.010579318 0.046828583 0.21990515
-0.010270044 0.048907571 0.21968313
-0.0090653747 0.050641559 0.21894415
-0.12743488 -0.099654935 0.21845938
-0.12566523 -0.098563015 0.21851012
-0.12419216 -0.097097881 0.21934769
-0.013863664 0.049189135 0.22000559
-0.012467556 0.050425567 0.21957
-0.01118343 0.052123055 0.21900819
-0.12833144 -0.099095255 0.21848534
-0.12743238 -0.097275123 0.21868744
-0.12629247 -0.095209733 0.21944985
-0.12579095 -0.093533866 0.21953681
-0.015771519 0.049811386 0.22005098
-0.014373183 0.05195035 0.21958724
-0.013176586 0.053571731 0.21906944
-0.12971979 -0.095285691 0.21857698
-0.12818749 -0.093725502 0.21922043
-0.12708776 -0.092459455 0.21957892
-0.016279504 0.053788766 0.21982668
-0.015089944 0.055579484 0.21913905
-0.014283624 0.056831129 0.21914619
-0.13353291 -0.095456004 0.2186428
-0.13183407 -0.093920812 0.21878186
-0.13029747 -0.092101492 0.21962874
-0.1283994 -0.091686174 0.21961613
-0.018680453 0.055562779 0.2199271
-0.017290663 0.056683414 0.21919797
-0.13520493 -0.094417199 0.21869114
-0.13377272 -0.092513107 0.21869852
-0.1324811 -0.090781219 0.21948135
-0.020596158 0.056884065 0.22000514
-0.019540019 0.058581553 0.2192717
-0.016095664 0.064357311 0.21931019
-0.015262451 0.065444626 0.21986982
-0.13713734 -0.092722848 0.21875557
-0.13605531 -0.090817444 0.21876931
-0.135005 -0.089050747 0.21934536
-0.02400903 0.057176515 0.22032811
-0.022650205 0.058371462 0.22009346
-0.021264531 0.059927747 0.21932633
-0.016639687 0.064743921 0.21932675
-0.016416084 0.066567384 0.21938798
-0.13964088 -0.090608127 0.2188376
-0.13812971 -0.089293256 0.21883334
-0.13649048 -0.087577015 0.21953684
-0.02607305 0.058389597 0.22038646
-0.024674334 0.059810564 0.22023958
-0.023890041 0.061526634 0.21948984
-0.019774873 0.067181714 0.21942586
-0.018962234 0.06776762 0.21942149
-0.14124832 -0.089339755 0.21888877
-0.14012584 -0.087756835 0.21889618
-0.13872382 -0.085728884 0.21942863
-0.13774276 -0.084374733 0.21991229
-0.027716354 0.05969879 0.22043897
-0.026842955 0.061439745 0.22028141
-0.025485951 0.062766895 0.21960999
-0.02003219 0.068653017 0.21945617
-0.14316499 -0.087719359 0.21895161
-0.14211529 -0.086269096 0.21895805
-0.1406585 -0.084244102 0.21961987
-0.139743 -0.082721941 0.21997723
-0.028924603 0.062979139 0.22011092
-0.027565446 0.063898847 0.21950923
-0.14421166 -0.086445272 0.21899268
-0.14394775 -0.084545784 0.21902116
-0.14271411 -0.082699709 0.21957061
-0.14151774 -0.081261843 0.22003476
-0.032365631 0.063241087 0.22058474
-0.031068098 0.064399108 0.21992619
-0.030881763 0.066382438 0.21961243
-0.14632562 -0.083052605 0.21909016
-0.1447455 -0.081011929 0.21949986
-0.14389259 -0.07931938 0.22011155
-0.034794725 0.064255543 0.22064623
-0.03324097 0.065963127 0.22001743
-0.03204507 0.067503519 0.219653
-0.14804895 -0.081334889 0.2191512
-0.14673904 -0.079427652 0.21917476
-0.14544681 -0.077357024 0.22014198
-0.14521416 -0.075376309 0.22020417
-0.037608035 0.064338371 0.22069854
-0.036832415 0.065570027 0.22070593
-0.035233118 0.067605004 0.22016706
-0.034042314 0.068760946 0.21971098
-0.14998588 -0.079625495 0.21921597
-0.14885284 -0.077819429 0.21922706
-0.1472618 -0.07566382 0.21969166
-0.14622506 -0.074353926 0.22024021
-0.038768604 0.067213409 0.22076957
-0.037339766 0.069170989 0.22014892
-0.03629965 0.070493385 0.21978194
-0.15178248 -0.077615745 0.21928336
-0.15097016 -0.076212846 0.21929333
-0.14927325 -0.074032463 0.21952295
-0.14817137 -0.072650172 0.22030511
-0.040833853 0.06883999 0.22069022
-0.039428029 0.070640437 0.21994242
-0.03771697 0.071470641 0.21982458
-0.15316111 -0.076513603 0.21932748
-0.1527954 -0.074566156 0.21935497
-0.15126991 -0.072474495 0.21956664
-0.15010537 -0.070574492 0.22037616
-0.044919714 0.069570608 0.22092178
-0.042888887 0.070393398 0.22057502
-0.041622501 0.071651928 0.21989834
-0.15473963 -0.072752617 0.2194217
-0.15345174 -0.070972383 0.21944323
-0.15197968 -0.069085158 0.22017837
-0.1511479 -0.067470632 0.22044915
-0.046523988 0.070409894 0.22077784
-0.045117877 0.071744747 0.22018535
-0.043911777 0.072994329 0.21996301
-0.15623391 -0.071280919 0.21947421
-0.15521677 -0.069653265 0.21948434
-0.15385756 -0.067331873 0.21963672
-0.15295783 -0.065703608 0.22039072
-0.050362132 0.070024453 0.22102794
-0.048587255 0.071515806 0.22077176
-0.047406163 0.072990507 0.22002611
-0.15579769 -0.065511204 0.21956709
-0.15457252 -0.063908063 0.22019801
-0.15408486 -0.062200516 0.22059414
-0.052147735 0.070996791 0.22106013
-0.050733559 0.072865635 0.22054288
-0.049584419 0.074350275 0.22008912
-0.15775937 -0.063674055 0.2196345
-0.1565925 -0.062229171 0.21997207
-0.15569259 -0.06075187 0.22064839
-0.055899408 0.071063347 0.22114602
-0.054414228 0.072360955 0.22062247
-0.052784264 0.074245535 0.22016208
-0.051181972 0.075258151 0.22013372
-0.16090697 -0.063961469 0.21968627
-0.16024761 -0.062547684 0.21969914
-0.15869601 -0.060643248 0.21979134
-0.15739542 -0.058661863 0.22044013
-0.15689953 -0.056881845 0.22073771
-0.058110733 0.072088666 0.2212038
-0.056619734 0.073836222 0.22065167
-0.054814465 0.074889719 0.22019286
-0.16180697 -0.060812846 0.21975747
-0.16075198 -0.059148617 0.21976754
-0.15928853 -0.057062246 0.21988048
-0.15816468 -0.05493293 0.22079457
-0.061464116 0.072005123 0.22126293
-0.060153704 0.07335642 0.22126274
-0.059000988 0.074852161 0.2209523
-0.16389731 -0.059189446 0.21982355
-0.16320223 -0.058396891 0.21982475
-0.16073088 -0.055146694 0.21983694
-0.15970913 -0.053324156 0.22058286
-0.159026 -0.051251851 0.22087425
-0.063666813 0.073210657 0.22132365
-0.062272921 0.07507626 0.22096922
-0.060961902 0.076213434 0.22042383
-0.16217111 -0.053264968 0.21989566
-0.16169471 -0.051595703 0.22007847
-0.16028009 -0.049583077 0.22092599
-0.1598005 -0.047961406 0.22094569
-0.06750793 0.073412351 0.22139654
-0.065907888 0.074747108 0.22112499
-0.064369448 0.076029658 0.2205482
-0.16527283 -0.05143825 0.21998355
-0.16373637 -0.050163098 0.22002295
-0.16230828 -0.048098106 0.2207157
-0.16105926 -0.046365995 0.22099628
-0.070998698 0.073049061 0.22145322
-0.069465078 0.074191719 0.22142929
-0.067982711 0.075877607 0.22085078
-0.066209182 0.076599151 0.22042841
-0.16661461 -0.050469235 0.22002468
-0.16548002 -0.048964955 0.22003049
-0.16396767 -0.046715453 0.22006245
-0.16285695 -0.044688553 0.22072449
-0.1623954 -0.042741805 0.22108358
-0.072951376 0.073906846 0.22150345
-0.071383372 0.075721361 0.22115724
-0.070080757 0.077234805 0.22053276
-0.16486208 -0.044862449 0.22009081
-0.16430531 -0.042942956 0.22018333
-0.16340062 -0.040901065 0.2207448
-0.16293046 -0.039083473 0.22115703
-0.076893196 0.073884875 0.2215742
-0.075240247 0.075226516 0.22130232
-0.073436834 0.076856397 0.22075753
-0.071747437 0.077922143 0.22055146
-0.16527766 -0.041013442 0.22016545
-0.16498154 -0.039134458 0.22021341
-0.1640394 -0.037318774 0.22091265
-0.08085613 0.073478647 0.22163869
-0.078908719 0.074788257 0.22126262
-0.077317744 0.07630074 0.2207116
-0.075462006 0.077337816 0.22060834
-0.16639777 -0.037316922 0.22025013
-0.16571857 -0.035608113 0.22064939
-0.16479972 -0.033690527 0.22125362
-0.083904818 0.072613291 0.22167869
-0.08245562 0.074251443 0.22150759
-0.080878161 0.075949252 0.22087647
-0.079282388 0.077200271 0.22067489
-0.17054147 -0.036052905 0.22034697
-0.1674256 -0.033886749 0.22032861
-0.16637933 -0.031991765 0.22063036
-0.16501608 -0.029999405 0.22117563
-0.16432033 -0.028297435 0.22137028
-0.087647557 0.072540358 0.22174491
-0.086102858 0.073863856 0.22142674
-0.084393293 0.07531032 0.22103122
-0.082604989 0.076524675 0.22072309
-0.17097896 -0.035077635 0.2203719
-0.16973454 -0.032033838 0.22040261
-0.16840619 -0.030394293 0.22040729
-0.16668811 -0.028295923 0.22056782
-0.16555014 -0.026300166 0.22129291
-0.16463371 -0.023997296 0.2214509
-0.093282029 0.070378944 0.22180898
-0.092029676 0.071717292 0.22180966
-0.089887396 0.073279485 0.2214146
-0.088204473 0.074931845 0.22089952
-0.086416595 0.075834051 0.22077987
-0.17134446 -0.031083941 0.22044818
-0.16933802 -0.029294591 0.22044313
-0.16828103 -0.026788961 0.22046785
-0.16718201 -0.024759453 0.22055593
-0.16576761 -0.022619229 0.22104657
-0.16486701 -0.020721432 0.22151227
-0.096684791 0.069837064 0.22186096
-0.095024467 0.07087522 0.22165199
-0.093442306 0.072589926 0.2213572
-0.09179318 0.074334055 0.22098204
-0.089973591 0.075457364 0.2208375
-0.16839175 -0.023453306 0.22052793
-0.1675598 -0.020995475 0.22055593
-0.16626129 -0.018970404 0.22110032
-0.16540885 -0.016736221 0.22159153
-0.16466683 -0.015238623 0.2216043
-0.10195816 0.067393422 0.22191353
-0.10044655 0.068566166 0.22190672
-0.09859214 0.070337221 0.22181024
-0.097075649 0.072111003 0.2211684
-0.095313594 0.073736206 0.22090399
-0.093636632 0.074768521 0.22089164
-0.16882683 -0.019111557 0.22061153
-0.16820514 -0.017312646 0.22064798
-0.16674423 -0.015390938 0.22121045
-0.16583942 -0.013538387 0.22165516
-0.10365526 0.068084545 0.22190219
-0.10240641 0.069451839 0.22154994
-0.10062385 0.071689241 0.22123963
-0.099275202 0.072855823 0.22096008
-0.16910827 -0.015838932 0.22067368
-0.16836137 -0.01385004 0.22071776
-0.16732299 -0.011866486 0.22100946
-0.16574726 -0.0092083029 0.22136155
-0.16481936 -0.0074566258 0.22174279
-0.11105956 0.064237379 0.2220228
-0.1096008 0.06546104 0.22201782
-0.10779569 0.067356773 0.22201829
-0.10594513 0.069211446 0.22143261
-0.10417183 0.070924014 0.22103927
-0.10282098 0.072256871 0.22101361
-0.16890818 -0.0098581947 0.22077453
-0.1676822 -0.0079745445 0.22078528
-0.1661869 -0.0059785079 0.22119312
-0.16499637 -0.0040182946 0.22167027
-0.16366598 -0.0014180467 0.22182724
-0.16294417 2.6930124e-05 0.22183947
-0.1160876 0.061640464 0.22206827
-0.11466515 0.062794164 0.22206272
-0.11282374 0.06453108 0.22205971
-0.11110449 0.066603296 0.22197013
-0.10958093 0.068532482 0.22142383
-0.1080288 0.069926307 0.22111472
-0.17088839 -0.0078261942 0.22084561
-0.16940024 -0.0068672681 0.22083552
-0.1677689 -0.0045713857 0.22084615
-0.16657051 -0.0024146959 0.22097811
-0.16503412 -0.00036245212 0.22120357
-0.16381884 0.0019307099 0.22161247
-0.16251369 0.0039999261 0.221901
-0.1612547 0.0062118061 0.22191682
-0.12137622 0.05867134 0.22211196
-0.11967854 0.060072891 0.22210577
-0.11793425 0.06200847 0.22179212
-0.11639859 0.063890964 0.22197212
-0.11482185 0.066046484 0.22195107
-0.11318891 0.067894652 0.22159542
-0.11154074 0.069409117 0.2211214
-0.17217523 -0.0067684688 0.22088727
-0.17180559 -0.0060629938 0.22089292
-0.16753699 -0.00088645518 0.22090612
-0.16645741 0.00091923587 0.22091819
-0.16516078 0.0032456312 0.2210298
-0.16388932 0.005256176 0.22123513
-0.16237801 0.0074674804 0.22153668
-0.16110113 0.0096866786 0.22192544
-0.15987 0.011976188 0.22199243
-0.15900299 0.013652956 0.22200599
-0.12814951 0.054713286 0.2221652
-0.12767443 0.055339284 0.22216754
-0.12490024 0.057955272 0.22216308
-0.12320736 0.059224613 0.22172414
-0.12151401 0.061415508 0.2219374
-0.11994813 0.062958911 0.22129285
-0.11778206 0.065098248 0.22130184
-0.11632052 0.066769488 0.22154887
-0.11504573 0.068109542 0.22116198
-0.16496389 0.006728325 0.22099251
-0.16411912 0.0090499334 0.22101788
-0.16279483 0.011180192 0.22112706
-0.16139168 0.013138002 0.22169672
-0.16004714 0.015339786 0.22163105
-0.15866399 0.017902287 0.22181305
-0.15725052 0.019790174 0.22208141
-0.15651408 0.021322215 0.22209483
-0.15389042 0.024822785 0.22210853
-0.15272541 0.026186923 0.22211124
-0.15108305 0.028452089 0.22212112
-0.14989081 0.030015135 0.22212689
-0.12998541 0.05525849 0.22220787
-0.12841183 0.056895897 0.22210926
-0.12682916 0.058705702 0.22221096
-0.12518358 0.060866803 0.22157885
-0.12286563 0.062460393 0.22120465
-0.12180566 0.063684709 0.22120683
-0.16362098 0.01289455 0.22107582
-0.16276139 0.01444106 0.22108728
-0.16164704 0.016712738 0.2211069
-0.15996869 0.018910756 0.22120756
-0.15864083 0.020951515 0.22141773
-0.15733996 0.023146061 0.22173882
-0.15575309 0.025273832 0.22196066
-0.1541079 0.027238386 0.22185899
-0.15242723 0.029342914 0.22157942
-0.15091899 0.031378269 0.22176373
-0.14964315 0.033585504 0.22214545
-0.14782749 0.035806485 0.22219065
-0.14647859 0.037702203 0.2221994
-0.14584555 0.039296277 0.22221574
-0.1338619 0.055556774 0.22128274
-0.13198403 0.056608528 0.22191522
-0.13030383 0.057922393 0.22151481
-0.12846269 0.060019188 0.22200754
-0.12725729 0.062529013 0.22196949
-0.12626751 0.063667409 0.22128709
-0.15937394 0.022628916 0.22116895
-0.15850063 0.024021054 0.22117744
-0.15693851 0.026546886 0.22119336
-0.15571016 0.0284073 0.22120368
-0.1538467 0.030466409 0.22120592
-0.15254645 0.032844007 0.22122397
-0.15112701 0.034971707 0.22158217
-0.14971498 0.037064046 0.22218771
-0.14817718 0.039174862 0.22181371
-0.14712414 0.040670879 0.22144116
-0.13438192 0.055768117 0.22129579
-0.13355581 0.057287686 0.22130744
-0.13224015 0.05838345 0.22130275
-0.12848842 0.06373518 0.22173592
-0.15222174 0.036593765 0.22128339
-0.1513572 0.038286328 0.22150803
-0.14983401 0.039798751 0.22134168
-0.14831981 0.041333072 0.22129562
-0.0043032989 -0.07909146 0.21859582
-0.014075663 -0.088136375 0.21867335
-0.011992794 -0.087022491 0.21859634
-0.010332689 -0.085179061 0.21859851
-0.0086772591 -0.081720725 0.21862891
-0.0080339909 -0.080309175 0.21922545
-0.0060251579 -0.078589663 0.21881387
-0.0051257983 -0.07658381 0.21865445
-0.024256408 -0.096996605 0.21864375
-0.022474438 -0.095276348 0.21864158
-0.020803683 -0.093276165 0.21873726
-0.019439351 -0.091426097 0.21865396
-0.017737433 -0.089014381 0.2186653
-0.015770897 -0.087515756 0.21921471
-0.015138529 -0.086194202 0.21966785
-0.012906909 -0.081720553 0.22003904
-0.011467896 -0.080639429 0.21983184
-0.0095308498 -0.079105981 0.22023979
-0.0079839677 -0.076941036 0.21996891
-0.0064852089 -0.075264126 0.21954358
0.0074198097 -0.054893874 0.21980655
0.0091743395 -0.054052114 0.21935701
0.0096802413 -0.052385852 0.21940936
0.013285622 -0.047033582 0.21883745
-0.030780338 -0.10121091 0.21868801
-0.029330704 -0.09981934 0.21868613
-0.027653333 -0.09796647 0.21868818
-0.025866847 -0.096186876 0.21881744
-0.024326976 -0.094223805 0.21911611
-0.022561818 -0.092060387 0.21967234
-0.02102622 -0.089927137 0.2196227
-0.019485246 -0.087892957 0.21957934
-0.017845206 -0.086069547 0.21991904
-0.016195714 -0.083835512 0.22071193
-0.014751554 -0.081623361 0.22072297
-0.013133202 -0.079806462 0.22059837
-0.011608571 -0.077719502 0.22075218
-0.0099522769 -0.075583518 0.2207325
-0.0084853843 -0.073453307 0.22077021
-0.0079192221 -0.0715978 0.22079244
-0.0040123984 -0.065863587 0.22082192
-0.0025673434 -0.06418553 0.22082512
-0.001363039 -0.062768154 0.2208281
0.0013064891 -0.060197674 0.22082469
0.002552256 -0.058776625 0.22082695
0.0036967471 -0.056684852 0.22084279
0.0056096539 -0.054679096 0.22048111
0.0071870014 -0.052726381 0.22017758
0.0087905452 -0.050752506 0.2197742
0.0096004307 -0.048665136 0.21969931
0.01193136 -0.046362862 0.21887365
0.012905478 -0.044231575 0.21889323
0.013981126 -0.042373251 0.21890622
-0.034375817 -0.10236344 0.21873283
-0.032551818 -0.10080434 0.2187271
-0.030807231 -0.098745279 0.21911271
-0.029262159 -0.096757807 0.21973874
-0.027818948 -0.094753444 0.21993692
-0.026275303 -0.092665374 0.22007567
-0.024586953 -0.090716489 0.2205237
-0.022994149 -0.088502117 0.22076966
-0.021354936 -0.086342111 0.22077774
-0.019760527 -0.084331922 0.22078402
-0.018073514 -0.082320973 0.22078864
-0.016683202 -0.080385059 0.2207973
-0.01483693 -0.078400664 0.22079858
-0.013325889 -0.076553442 0.22080354
-0.011719976 -0.074168347 0.22081614
-0.0098110214 -0.072368234 0.2208131
-0.0084664002 -0.070492953 0.22082154
-0.0054294243 -0.065378249 0.22085591
-0.0041714013 -0.063789926 0.22086088
-0.0027017593 -0.062391549 0.22085877
-0.00019867718 -0.058852158 0.22087534
0.00062981993 -0.05737251 0.22088614
0.0021725968 -0.055339575 0.22089376
0.0037153512 -0.053306654 0.22090137
0.0052581355 -0.051273711 0.22090897
0.0068013445 -0.049206797 0.22049609
0.0083450228 -0.047053229 0.21997744
0.0099888965 -0.044936776 0.21946725
0.011457719 -0.042846031 0.21929504
0.012917839 -0.040884957 0.21898265
0.014080293 -0.038489331 0.21897218
0.015259057 -0.03643648 0.2189867
-0.041051731 -0.10622772 0.21878591
-0.03955102 -0.10517782 0.21877718
-0.037915789 -0.10322989 0.21894169
-0.036076274 -0.10136431 0.21939528
-0.034365959 -0.099356994 0.21945208
-0.032938156 -0.097223677 0.2199727
-0.031296618 -0.095264979 0.2206971
-0.029751353 -0.093185894 0.22080995
-0.028208558 -0.091152936 0.22081755
-0.026677862 -0.089303754 0.22082217
-0.024440702 -0.087341949 0.22081602
-0.023193538 -0.086215101 0.2208132
-0.018834043 -0.080646388 0.22083165
-0.018448353 -0.080138154 0.22083355
-0.0062988997 -0.064128652 0.22089346
-0.00038776547 -0.056222245 0.22092468
0.00086955726 -0.054067224 0.2209395
0.0017733499 -0.051759697 0.2209634
0.003225714 -0.049731571 0.22097257
0.0047685355 -0.047698572 0.22098017
0.0064376965 -0.045512591 0.2206147
0.0079943091 -0.043374971 0.21999729
0.0095295608 -0.041351952 0.22000486
0.01105427 -0.039371379 0.21957013
0.012599453 -0.037201736 0.219338
0.014081433 -0.035076108 0.21918455
0.01533363 -0.032894425 0.21904713
0.016211599 -0.030814603 0.21906756
-0.044781379 -0.10697765 0.21884021
-0.042924695 -0.10579491 0.21882732
-0.041365232 -0.1038739 0.21903011
-0.039777938 -0.10198569 0.22016668
-0.038199641 -0.099987842 0.22065628
-0.036658879 -0.097750537 0.22085504
-0.034991574 -0.095636651 0.22086181
-0.033266101 -0.094009846 0.22085902
-0.030890431 -0.091961183 0.22085191
-0.029691339 -0.090161338 0.22086164
-0.0283034 -0.088798434 0.22086041
0.0011182278 -0.050134659 0.22100365
0.0016072094 -0.048049286 0.22103114
0.0026090592 -0.046060063 0.22104773
0.0043333396 -0.043879606 0.22096269
0.0059271976 -0.041763343 0.22075903
0.0074364319 -0.039926082 0.22047603
0.0089819059 -0.037652396 0.22054185
0.010378107 -0.035684004 0.22014107
0.012148537 -0.033534296 0.22004691
0.013712659 -0.031431362 0.21968356
0.015040003 -0.029396955 0.21922891
0.016016722 -0.027165877 0.21913473
-0.04845424 -0.10731904 0.21890053
-0.046662852 -0.10628423 0.21897201
-0.045022957 -0.1043393 0.21947424
-0.043366339 -0.10236765 0.21979544
-0.041990764 -0.10034955 0.22078474
-0.040472917 -0.098345496 0.2209135
-0.038503718 -0.096542038 0.22090942
-0.036913861 -0.094974622 0.22090811
-0.00068415701 -0.046047322 0.22110744
0.00077296793 -0.044814404 0.22110263
0.0023061037 -0.042186081 0.22112077
0.0037476644 -0.040189818 0.22112957
0.0052546114 -0.038059525 0.22113952
0.0068135858 -0.036035523 0.22114669
0.0084147602 -0.034064569 0.22094385
0.010016561 -0.031941786 0.22077756
0.011416115 -0.029790068 0.22030948
0.013185963 -0.027731836 0.22010392
0.014611751 -0.025654532 0.21952775
0.015851609 -0.023355363 0.21920416
0.017044611 -0.021343485 0.21921773
-0.051280268 -0.10808269 0.21893822
-0.050302826 -0.10689661 0.2190309
-0.048485048 -0.10521873 0.21947128
-0.047010079 -0.10290489 0.22077145
-0.045564681 -0.1008051 0.22094665
-0.044006176 -0.098810293 0.22096919
-0.042401232 -0.09740293 0.22096477
0.00090952218 -0.040602177 0.22117364
0.0020500794 -0.039762676 0.22116776
0.0036638901 -0.036214247 0.22120044
0.0049590245 -0.034753516 0.22120252
0.006605275 -0.032547217 0.22121128
0.0078666732 -0.030427458 0.22122549
0.0095477104 -0.028342834 0.22099774
0.010918103 -0.026220933 0.22039242
0.012678437 -0.02415967 0.2202031
0.014274895 -0.02215153 0.21995023
0.015604638 -0.02002725 0.21951002
0.016394831 -0.017984446 0.21928805
-0.057231158 -0.11030849 0.21900682
-0.056222428 -0.10919693 0.21900804
-0.05396229 -0.10689806 0.21909827
-0.052243158 -0.10544797 0.21987851
-0.050675757 -0.10336593 0.22090408
-0.049118035 -0.10137882 0.22101668
-0.047248363 -0.099768169 0.22101103
-0.045687463 -0.098446704 0.22100598
0.0065279603 -0.02884068 0.22127736
0.0073770285 -0.026852399 0.22129668
0.0090948641 -0.024708822 0.22123815
0.010552049 -0.022393139 0.22084838
0.01208242 -0.020504698 0.220569
0.013771303 -0.018424267 0.2200457
0.015193872 -0.01650062 0.21936896
0.01580555 -0.014865174 0.21935308
-0.060693473 -0.11095284 0.21905808
-0.059062757 -0.10986758 0.21911214
-0.057470053 -0.10796864 0.21923268
-0.055872791 -0.10596409 0.2200205
-0.054232594 -0.10398286 0.22084141
-0.052543446 -0.1020476 0.22106685
-0.051111069 -0.10095549 0.22106013
0.0056426153 -0.024992891 0.22136045
0.0069838092 -0.023150243 0.22136836
0.0086230189 -0.020990217 0.22137645
0.010165811 -0.01895728 0.22138405
0.011736497 -0.01691151 0.22081
0.013323702 -0.014820654 0.21991177
0.014273189 -0.012993554 0.2194647
-0.064585924 -0.11133689 0.21912168
-0.062880903 -0.11033867 0.21910833
-0.061178759 -0.10859958 0.21974349
-0.059562847 -0.10657791 0.22027627
-0.057849936 -0.1044739 0.22096963
-0.056282431 -0.10239946 0.22112821
0.0044600219 -0.023838123 0.22140202
0.0055864975 -0.022089945 0.22141209
0.0069361478 -0.019405497 0.22143453
0.0081333295 -0.017415067 0.22144765
0.0098068491 -0.015344517 0.22135498
0.01113572 -0.013255809 0.22070652
0.012696825 -0.011298351 0.22029789
0.014201209 -0.0087925876 0.21976081
0.015407085 -0.0067713792 0.21950147
0.016048439 -0.0051535852 0.21951808
-0.06814649 -0.11167538 0.21918003
-0.066435844 -0.11080407 0.21916439
-0.064877674 -0.108937 0.21951564
-0.063225977 -0.10721815 0.22016931
-0.061683573 -0.10507255 0.22114576
-0.059944913 -0.10302965 0.22118333
-0.05800727 -0.10163277 0.22117276
0.0067385137 -0.015472366 0.22150674
0.007643722 -0.013839887 0.22151884
0.0092325062 -0.011713766 0.22124727
0.010570236 -0.0095068449 0.22071545
0.012207612 -0.0075028874 0.22050074
0.013842888 -0.0053897584 0.22024088
0.014826782 -0.0035026008 0.21963717
0.015285894 -0.0015613008 0.21959449
-0.069884837 -0.11115559 0.21922053
-0.068601951 -0.10964623 0.21942721
-0.066733614 -0.10719871 0.22078866
-0.065299042 -0.10544905 0.22118226
-0.063618466 -0.1037289 0.22123745
-0.061843697 -0.1024326 0.22122806
0.0053785741 -0.013923243 0.22155835
0.0058131218 -0.012324853 0.22157831
0.0070726052 -0.010168665 0.22159319
0.0085913092 -0.008130041 0.22158763
0.0099940449 -0.006050094 0.22088288
0.01166182 -0.0038469909 0.22035959
0.013155185 -0.0018898025 0.21982987
0.014658719 0.00019627996 0.21963651
0.015499786 0.0020748656 0.2196541
-0.073690951 -0.11124497 0.21928766
-0.072040074 -0.11003029 0.21967359
-0.070497394 -0.10795377 0.22050871
-0.068988107 -0.10588056 0.22128148
-0.067450635 -0.10382453 0.22130497
-0.066500895 -0.10244808 0.22131187
0.0054161847 -0.007926859 0.22166222
0.0064103827 -0.00649691 0.2216692
0.0080930144 -0.004448262 0.22137967
0.0095682815 -0.0023535825 0.22080207
0.011303969 -0.00031639077 0.22057743
0.012679115 0.0016736742 0.21998021
0.014196858 0.0036756881 0.21970554
-0.077452645 -0.11151153 0.21935093
-0.075713627 -0.11058158 0.21975155
-0.07414145 -0.10858902 0.2203272
-0.072594956 -0.10643807 0.22059861
-0.07101728 -0.10413615 0.22136392
-0.069494382 -0.10281724 0.22135945
0.0035943761 -0.0067534 0.22171558
0.0045761913 -0.0049865339 0.22172865
0.0059207156 -0.002921816 0.22174039
0.0076615587 -0.00074991956 0.22162186
0.0090442076 0.0011963416 0.22088256
0.010816246 0.0033413712 0.22047538
0.012276769 0.0054646581 0.21978357
0.01347401 0.0077105947 0.21978897
0.013770647 0.0095019396 0.21981482
-0.081222706 -0.11166701 0.21941625
-0.079476215 -0.11061805 0.21940306
-0.077824101 -0.10909901 0.22009452
-0.076199822 -0.10691635 0.22056387
-0.074593373 -0.10491451 0.221007
-0.072821394 -0.10317315 0.2214133
-0.071321703 -0.10215533 0.22140403
0.0041584373 -0.0011842009 0.22180252
0.0055274218 0.00078035705 0.22181207
0.0072012693 0.0029275585 0.22149035
0.0087495819 0.0048675034 0.22082515
0.010206558 0.0070509054 0.22012413
0.011779226 0.0092285965 0.21984604
0.012626819 0.011269726 0.21986635
-0.082900994 -0.1110649 0.21945709
-0.08147613 -0.10944424 0.21953213
-0.079726301 -0.10748172 0.22064078
-0.078147024 -0.10550842 0.22131941
-0.07652133 -0.10408322 0.22146425
0.0022470877 -0.00020110235 0.22185418
0.0039191917 0.0022136495 0.2218661
0.0051575303 0.0044822507 0.22186793
0.0067456514 0.0065214299 0.22137888
0.0083028525 0.0087454971 0.22071473
0.0096694678 0.010727992 0.21998279
0.011294305 0.012768762 0.21991655
0.011902109 0.014092075 0.21992862
-0.086544305 -0.11066926 0.21952972
-0.085054174 -0.1098856 0.21951653
-0.08350417 -0.10784194 0.21985771
-0.081991807 -0.10571157 0.22125384
-0.080509588 -0.10466105 0.22152618
0.0040557235 0.0063019935 0.221935
0.0047141463 0.0080671534 0.22195385
0.0060609058 0.010135997 0.22131559
0.007679306 0.012287915 0.22046196
0.0092557743 0.014293054 0.21999533
0.010027729 0.015952589 0.21999495
-0.088707961 -0.10961375 0.21958724
-0.086799659 -0.10832647 0.21992953
-0.085518025 -0.10628729 0.22105804
-0.083822951 -0.1046736 0.22158575
0.00069790334 0.0087354146 0.22203808
0.0024653673 0.0099384617 0.22202708
0.0041324049 0.011776432 0.22191656
0.00545495 0.013777198 0.22117162
0.0071290061 0.015601667 0.22072893
0.0087218508 0.018120104 0.22009555
0.0093087107 0.01974204 0.22007401
-0.092016652 -0.10988759 0.21964218
-0.090863928 -0.1087575 0.21964109
-0.089220189 -0.10682166 0.22035389
-0.087684542 -0.10472716 0.22144021
-0.085856281 -0.10407466 0.22163296
-0.0010113493 0.0097673461 0.22208688
0.00032598525 0.011351649 0.22207497
0.0018800274 0.013416043 0.22205214
0.0034774393 0.015250539 0.22129881
0.0051083639 0.017393438 0.22110935
0.0064825267 0.019406928 0.22040688
0.007773295 0.021077069 0.22012503
-0.092527136 -0.10700409 0.21972552
-0.091366924 -0.10543671 0.22059369
-0.08929377 -0.10389587 0.22154424
-0.0014249235 0.012692789 0.22214536
5.864352e-05 0.014877366 0.22213851
0.0015295818 0.016895695 0.22183199
0.0029454455 0.018908096 0.22129986
0.0046059266 0.021043705 0.22075689
0.005853951 0.023128191 0.22019546
0.0062175691 0.02514655 0.22022405
-0.096596248 -0.10702404 0.21977481
-0.094929747 -0.10568855 0.22054048
-0.093320511 -0.10398218 0.22159381
-0.091783836 -0.10318103 0.22175556
-0.0020743236 0.016768871 0.22222818
-0.00065367669 0.018484997 0.22223246
0.0010411516 0.020608788 0.2219056
0.0025115907 0.022590732 0.22121987
0.0039812773 0.024595888 0.22043671
0.0050667822 0.02641627 0.22026701
-0.10004023 -0.10677359 0.21984132
-0.098401457 -0.10611496 0.21982326
-0.096906818 -0.10434645 0.2212615
-0.095586717 -0.10304859 0.22182654
-0.093945965 -0.10005645 0.22184905
-0.004236035 0.018199751 0.22229217
-0.0026861355 0.020027177 0.22229606
-0.0010721385 0.022112792 0.22223082
0.00021772087 0.024093745 0.22146122
0.0019661784 0.026181584 0.2206047
0.0033068955 0.028057506 0.22032742
-0.10207588 -0.10595594 0.21989237
-0.10058473 -0.10473531 0.22048427
-0.099102743 -0.10269144 0.2213406
-0.097661369 -0.10099053 0.22189979
-0.0056008995 0.019189259 0.22233407
-0.004557699 0.021611741 0.22235748
-0.0031259805 0.023620332 0.22236668
-0.0017232448 0.025640873 0.22175157
4.8056245e-06 0.027937392 0.22090648
0.0014784411 0.02993839 0.22039324
-0.10417523 -0.1048559 0.22032456
-0.10272297 -0.10316429 0.22122857
-0.10106659 -0.10124557 0.22186451
-0.09950868 -0.10019556 0.22194709
-0.0065040514 0.023368107 0.22242326
-0.0052082092 0.025144471 0.22243086
-0.0036133006 0.027280377 0.22212286
-0.0020482168 0.02952191 0.22117414
-0.00057659298 0.03164681 0.22049044
0.00035985559 0.033350401 0.22047295
-0.10760379 -0.10476863 0.22001287
-0.10636525 -0.10368507 0.22045407
-0.10471819 -0.10157988 0.22147024
-0.1032581 -0.099520296 0.22202648
-0.10255025 -0.097309969 0.22205229
-0.10181902 -0.095566586 0.22206953
-0.0073676705 0.026783025 0.22249842
-0.0057284832 0.028943004 0.22250651
-0.0041241273 0.030940289 0.22170283
-0.0026444793 0.033065051 0.22074027
-0.0011023283 0.034150563 0.22051328
-0.1096143 -0.10345638 0.22007206
-0.10842323 -0.10209822 0.22061399
-0.1069067 -0.099995099 0.22146869
-0.10541204 -0.097884648 0.2220939
-0.10382453 -0.095798701 0.22199053
-0.10280129 -0.094439022 0.22210689
-0.0089756474 0.027910596 0.22254713
-0.0075582191 0.03060575 0.22256853
-0.0062235594 0.032650791 0.22190963
-0.0045526102 0.034793057 0.22128484
-0.003440246 0.036798805 0.22060168
-0.0027765855 0.038474336 0.22061892
-0.11150184 -0.10224016 0.22019635
-0.11058399 -0.10057374 0.22086018
-0.10902105 -0.098427705 0.22184402
-0.10740193 -0.096358262 0.22215645
-0.10573616 -0.094832167 0.22215301
-0.10410553 -0.093831651 0.22214107
-0.0089769661 0.032952398 0.22263516
-0.0082546249 0.03433425 0.22224353
-0.0068027824 0.036312029 0.22096352
-0.0047381818 0.037900724 0.22064434
-0.0034315959 0.038812727 0.22063662
-0.12152934 -0.10870906 0.2201955
-0.11422725 -0.10045653 0.22020766
-0.1126911 -0.098956741 0.22090085
-0.11104012 -0.096862033 0.22178276
-0.1098307 -0.095446207 0.22221623
-0.012705389 0.032234639 0.22268993
-0.012068089 0.033728346 0.22270441
-0.010243922 0.035940111 0.22247319
-0.0087698773 0.037881888 0.22136576
-0.0077590495 0.040000878 0.22091559
-0.0069963112 0.041914076 0.2207551
-0.12225377 -0.10835766 0.22021474
-0.11573066 -0.099309333 0.22025481
-0.11468443 -0.097276136 0.22099045
-0.11305696 -0.095334485 0.22220285
-0.11178093 -0.09418609 0.22227344
-0.013158657 0.03518948 0.22274962
-0.012244631 0.037402995 0.22268599
-0.010969259 0.039332546 0.22196801
-0.009178862 0.041500509 0.22162634
-0.00784944 0.043559976 0.22127892
-0.0070763454 0.044849716 0.22080773
-0.11801556 -0.097151488 0.2203337
-0.11667562 -0.095837884 0.22139536
-0.11509368 -0.093854345 0.22233897
-0.11341546 -0.093174681 0.22232062
-0.015903436 0.038131751 0.22285055
-0.014378518 0.038910232 0.22283651
-0.012866914 0.040931284 0.22228198
-0.011336062 0.043068193 0.22176577
-0.0097389668 0.045021661 0.22129324
-0.0086894557 0.046093553 0.22085857
-0.12215493 -0.09673471 0.22041565
-0.12036434 -0.096137851 0.22067598
-0.11874661 -0.09419439 0.22174515
-0.1171483 -0.092404969 0.22240135
-0.017258402 0.039159864 0.22289294
-0.016394578 0.04052674 0.22290111
-0.014978878 0.042500325 0.22222762
-0.013441723 0.044672608 0.22148654
-0.012030825 0.046661377 0.22092882
-0.011307903 0.048144422 0.22094163
-0.12388124 -0.095948257 0.22046058
-0.12252738 -0.094617568 0.22095957
-0.12084924 -0.092508852 0.22182633
-0.11934091 -0.090777494 0.22246931
-0.020063221 0.041354805 0.22298187
-0.018559206 0.042090885 0.22296746
-0.017034519 0.044242047 0.22268333
-0.015548903 0.046347469 0.22164968
-0.014074758 0.048214555 0.2209928
-0.012721669 0.049034104 0.22098263
-0.12498745 -0.094981998 0.2204974
-0.12445351 -0.093134075 0.22101201
-0.12294079 -0.090972804 0.22198161
-0.12176555 -0.089553013 0.22253446
-0.022207472 0.042070791 0.22303298
-0.020729892 0.043729506 0.22303523
-0.019164104 0.045786597 0.22258034
-0.017638735 0.047784798 0.22152486
-0.016522311 0.049480379 0.22105907
-0.12643477 -0.091358334 0.22074305
-0.12496009 -0.08943823 0.22187579
-0.12374278 -0.087643594 0.22260347
-0.023539625 0.043506369 0.2230821
-0.02276234 0.045271665 0.22309883
-0.021161355 0.047369637 0.22273152
-0.01956705 0.049344659 0.22202513
-0.018190175 0.05136437 0.22147356
-0.017316211 0.052992411 0.22113465
-0.12970921 -0.091121681 0.22064997
-0.12846003 -0.090094134 0.22096217
-0.12701063 -0.087905735 0.22210228
-0.12553839 -0.086143769 0.22266203
-0.024342012 0.0467906 0.22315384
-0.023250077 0.048819438 0.22261949
-0.02167761 0.050868221 0.22217679
-0.020060245 0.053014398 0.22196701
-0.018856719 0.054403976 0.22123711
-0.13179785 -0.089697823 0.22071253
-0.13070913 -0.088459283 0.22122754
-0.12908417 -0.086454459 0.22226474
-0.12727995 -0.085858263 0.22269852
-0.026378106 0.049307503 0.22323456
-0.025269218 0.05037073 0.222708
-0.023700148 0.052402847 0.22224008
-0.022240557 0.054473452 0.22168641
-0.02110365 0.055790715 0.22125185
-0.13438249 -0.087615386 0.22079548
-0.13272604 -0.086686857 0.22094625
-0.13115793 -0.084780604 0.22214623
-0.13024312 -0.08276277 0.22280595
-0.028377566 0.050533436 0.22329201
-0.027231533 0.052021414 0.22313508
-0.025899198 0.054141812 0.22210491
-0.024364833 0.055975772 0.22141261
-0.023370985 0.05724673 0.22131817
-0.13542593 -0.086721666 0.22082992
-0.13488075 -0.085294291 0.22084498
-0.1332462 -0.0832991 0.2218321
-0.1317099 -0.081115074 0.22286116
-0.033011906 0.050295629 0.22337152
-0.031086411 0.051809035 0.22336313
-0.029458269 0.053547911 0.2231105
-0.027898666 0.055659272 0.22212568
-0.026238188 0.05734279 0.22141607
-0.024923153 0.05829227 0.22136439
-0.13678151 -0.083688527 0.22090732
-0.13536185 -0.081659406 0.22169077
-0.13389532 -0.079550676 0.22288173
-0.13386694 -0.077656649 0.2229605
-0.034817837 0.05101525 0.22341664
-0.033163723 0.053248562 0.22336693
-0.031626079 0.055054463 0.22262684
-0.029999029 0.057320468 0.22232841
-0.028608974 0.059055716 0.22157338
-0.028319441 0.060869277 0.22147065
-0.13883381 -0.082000844 0.2209738
-0.13754714 -0.080112159 0.22182511
-0.13593099 -0.077962302 0.22286002
-0.13514593 -0.076501362 0.22300372
-0.036307752 0.052751534 0.22347385
-0.035114851 0.054829299 0.2233285
-0.033628259 0.056644477 0.22256579
-0.032017399 0.058871575 0.22213079
-0.030562486 0.060786761 0.22150975
-0.029648691 0.062128358 0.22151665
-0.1409682 -0.080183521 0.22113101
-0.13951191 -0.078598395 0.22197334
-0.13788925 -0.076459818 0.22251222
-0.13672544 -0.074528486 0.22306658
-0.038429212 0.054879785 0.22354926
-0.037217923 0.056262299 0.22353612
-0.035685174 0.058228381 0.22295053
-0.034136821 0.060320191 0.22207288
-0.032699183 0.062341951 0.22157545
-0.031348467 0.063233718 0.22156659
-0.14289093 -0.078849345 0.22110201
-0.14155346 -0.076960579 0.22159208
-0.14002781 -0.074865207 0.22255069
-0.13840011 -0.072815426 0.22312671
-0.040191244 0.056331895 0.22360642
-0.039275963 0.057801746 0.2236155
-0.037699267 0.059967227 0.22324111
-0.036188908 0.06192746 0.22225222
-0.034784768 0.063359722 0.22163086
-0.14423501 -0.077072956 0.22115727
-0.14363573 -0.075354181 0.22144042
-0.14211282 -0.073271252 0.22223049
-0.14053892 -0.07133121 0.22293092
-0.13963391 -0.069957115 0.22319891
-0.042462975 0.058017485 0.22367683
-0.041308388 0.059343919 0.2236791
-0.039863005 0.061412208 0.22311944
-0.038302686 0.063503541 0.22222207
-0.037334241 0.064760193 0.22170131
-0.14537618 -0.073522694 0.22165662
-0.14420469 -0.071700208 0.22228119
-0.14242591 -0.069826752 0.22308755
-0.14164972 -0.068480954 0.22326106
-0.046762556 0.057168566 0.22373962
-0.044980057 0.058726087 0.2237346
-0.043402635 0.06095884 0.22330062
-0.041866742 0.062943198 0.22287524
-0.040450793 0.065033458 0.22211474
-0.039346248 0.066488683 0.22176778
-0.14746025 -0.071716398 0.22141534
-0.14624393 -0.07017184 0.2221404
-0.14459425 -0.068186954 0.22302054
-0.14336899 -0.066099048 0.22333355
-0.047881983 0.058124766 0.22377653
-0.047266971 0.060390666 0.22380492
-0.045543879 0.062499091 0.22322525
-0.043923222 0.064752899 0.22257359
-0.042526953 0.066630155 0.22187246
-0.041417755 0.067975514 0.2218311
-0.14908409 -0.070043132 0.22136742
-0.14819545 -0.068450034 0.22155569
-0.14669378 -0.066503599 0.22249916
-0.14524117 -0.06442105 0.22339663
-0.14435968 -0.062835202 0.2234084
-0.050972309 0.06104172 0.22388326
-0.049268939 0.062030002 0.22381169
-0.047539458 0.063935719 0.22292721
-0.046034068 0.066121601 0.22231984
-0.044543281 0.068222724 0.22189185
-0.04331775 0.069315195 0.22188877
-0.15022981 -0.068691038 0.22141165
-0.15013739 -0.066839971 0.22144231
-0.14872274 -0.064862892 0.22226414
-0.14729865 -0.062861666 0.22328186
-0.14600413 -0.060997285 0.22347012
-0.052701645 0.061846726 0.22392845
-0.051296845 0.063652292 0.22376788
-0.049746487 0.065590993 0.22294037
-0.04811503 0.067722507 0.222489
-0.046658523 0.069377132 0.22195017
-0.15188208 -0.065068282 0.2215047
-0.15084514 -0.063252769 0.22225411
-0.14931999 -0.06125471 0.22322859
-0.14781006 -0.05947575 0.22352926
-0.054919638 0.063149072 0.22399119
-0.053586461 0.064893387 0.22330242
-0.051812753 0.067307204 0.22276039
-0.050068323 0.069001265 0.22205783
-0.048416976 0.070170626 0.22199574
-0.1532132 -0.063532583 0.22155552
-0.15281397 -0.061624348 0.22186381
-0.151273 -0.059621513 0.22271778
-0.15007184 -0.057858333 0.22336571
-0.0586139 0.06280946 0.22405195
-0.057046399 0.064516485 0.22402313
-0.055639632 0.066477798 0.22333725
-0.053829081 0.068871833 0.22270544
-0.0526569 0.070183709 0.22207253
-0.15484329 -0.059975587 0.22164699
-0.15345305 -0.058121987 0.22239141
-0.15171626 -0.056006975 0.22320081
-0.15067677 -0.054209851 0.22367288
-0.060564816 0.064025603 0.22404957
-0.059055842 0.065981895 0.22340278
-0.057609759 0.068283059 0.2229425
-0.055833705 0.069962807 0.22254434
-0.0541609 0.070960127 0.22211318
-0.15610819 -0.058381729 0.22169763
-0.15535648 -0.056540608 0.22185911
-0.15382601 -0.054487184 0.22274975
-0.15229784 -0.052431136 0.22359882
-0.15158215 -0.05059959 0.22375225
-0.064422466 0.063967794 0.22417705
-0.062653258 0.065567628 0.22414269
-0.061193865 0.067582726 0.22355528
-0.05968288 0.069611333 0.22247349
-0.05828657 0.071206696 0.222192
-0.15704887 -0.054897375 0.2217754
-0.15588236 -0.052917868 0.22210069
-0.15433764 -0.0507733 0.22337389
-0.15296727 -0.04876107 0.22380926
-0.1526666 -0.046773411 0.22383857
-0.066215627 0.06525445 0.22423184
-0.06477917 0.067188673 0.22371839
-0.063194573 0.069321811 0.22291468
-0.061648123 0.071015351 0.22228573
-0.059925038 0.071897119 0.22223358
-0.15809968 -0.053202637 0.22182387
-0.15785101 -0.051379107 0.22186792
-0.15660089 -0.049217556 0.22270201
-0.15502581 -0.047098085 0.22370876
-0.15377185 -0.045114804 0.2238874
-0.15337969 -0.043228962 0.22391327
-0.07184007 0.063437022 0.22430171
-0.070187785 0.064923085 0.22429778
-0.068541005 0.066890486 0.22398983
-0.066943325 0.068888731 0.2233083
-0.065347545 0.070798695 0.22248314
-0.064103834 0.07236921 0.22231731
-0.15905042 -0.049388215 0.22190759
-0.15849826 -0.047610074 0.22197217
-0.15696073 -0.045621458 0.22293602
-0.15550612 -0.043543622 0.22371325
-0.15437916 -0.041504823 0.22396132
-0.15386936 -0.039653856 0.22398447
-0.075301319 0.063197985 0.22436005
-0.073623061 0.064241372 0.22434789
-0.072089694 0.066391982 0.22426949
-0.070573658 0.068233423 0.22354427
-0.068997994 0.070469186 0.22287861
-0.06743148 0.072387613 0.2223777
-0.065840386 0.073389441 0.22236644
-0.16010691 -0.045731466 0.22199048
-0.15901259 -0.044031419 0.22233388
-0.15742108 -0.041964542 0.22315291
-0.15592545 -0.039926182 0.22392718
-0.15493341 -0.038446024 0.2240247
-0.077193826 0.063859239 0.22440569
-0.075655483 0.065783523 0.22441149
-0.074111782 0.067880392 0.22394893
-0.072452873 0.070087023 0.22317858
-0.070972405 0.07189633 0.22247995
-0.069264442 0.073073275 0.22242275
-0.16165224 -0.044040389 0.22204787
-0.161006 -0.04243974 0.22212666
-0.15951538 -0.040418986 0.22286507
-0.15779781 -0.038331412 0.22368945
-0.15711203 -0.036946975 0.2240902
-0.081038207 0.064361721 0.22448394
-0.079328746 0.065189511 0.22446744
-0.077758431 0.067244411 0.22396861
-0.076193064 0.069301531 0.22349621
-0.074573651 0.071454339 0.22290237
-0.073141597 0.073024072 0.22249189
-0.16213827 -0.040901192 0.2221114
-0.16150106 -0.038710885 0.22243826
-0.15985689 -0.036754586 0.22325897
-0.15843773 -0.034790076 0.22382334
-0.15730877 -0.03265921 0.22416851
-0.15620844 -0.030470738 0.22418684
-0.082902245 0.06495139 0.22452782
-0.081416108 0.066661254 0.22408894
-0.079849958 0.068695858 0.22355288
-0.078384891 0.070929334 0.22316317
-0.076719828 0.072828047 0.22260503
-0.07482291 0.073684245 0.2225337
-0.16293664 -0.0369265 0.22224277
-0.16203526 -0.03520482 0.22258112
-0.16058484 -0.033060618 0.22319239
-0.1589742 -0.031114485 0.22384889
-0.15726846 -0.029223297 0.2242277
-0.15667346 -0.026493855 0.22426459
-0.15588918 -0.024906503 0.22427817
-0.088795096 0.063006036 0.2246003
-0.08696571 0.064490527 0.22459312
-0.085156113 0.066332348 0.22426675
-0.083592981 0.06833306 0.223397
-0.08189106 0.070340984 0.22296368
-0.080498405 0.072404899 0.22266008
-0.07897447 0.073675938 0.22260855
-0.163853 -0.033536501 0.2222708
-0.16261584 -0.031534653 0.22253665
-0.16117179 -0.02922114 0.22318895
-0.15958801 -0.027377959 0.2236017
-0.15799868 -0.025212519 0.22422388
-0.15678161 -0.023377119 0.22432089
-0.093703076 0.061257288 0.22465843
-0.091974184 0.062124595 0.22464226
-0.090403244 0.063759089 0.22464243
-0.088835478 0.065949313 0.22435965
-0.087164603 0.067859478 0.22368245
-0.085697122 0.069882341 0.22282174
-0.084083155 0.07171119 0.22266652
-0.082245626 0.072740421 0.22265124
-0.16382733 -0.030037489 0.22233139
-0.1629454 -0.027862575 0.22245638
-0.16153751 -0.025880506 0.22284168
-0.1599519 -0.023716351 0.22369267
-0.15845208 -0.021615062 0.22433561
-0.15735066 -0.019446755 0.22439972
-0.15664504 -0.017725589 0.22441706
-0.098853111 0.058211766 0.22469828
-0.097927101 0.059539199 0.22470468
-0.095664665 0.061898604 0.22470497
-0.093965724 0.063385636 0.22461452
-0.092347533 0.065318845 0.22411717
-0.090765737 0.067334011 0.22378373
-0.089222059 0.069528744 0.22327964
-0.087590225 0.071398854 0.22277203
-0.086043023 0.07254862 0.2227165
-0.16432901 -0.026253857 0.22240643
-0.16342199 -0.024291148 0.2224735
-0.16198969 -0.02219658 0.22309351
-0.16036075 -0.020081732 0.22357988
-0.15891719 -0.01804056 0.2242907
-0.15765959 -0.01608246 0.22446397
-0.15706888 -0.013799977 0.22449319
-0.10028603 0.059133194 0.22474016
-0.099096559 0.060744539 0.22474678
-0.097610645 0.062842928 0.22458984
-0.095922992 0.064793728 0.22411308
-0.094345532 0.066984288 0.22373948
-0.092831805 0.068896428 0.22329463
-0.091233328 0.070877083 0.22279514
-0.0896082 0.072180577 0.22277445
-0.16428179 -0.02260451 0.22246921
-0.16378608 -0.020643773 0.22249448
-0.1625669 -0.018571654 0.22308718
-0.16080531 -0.016474457 0.22369035
-0.15932843 -0.014575023 0.22438705
-0.15792906 -0.012477579 0.22453171
-0.15685862 -0.01019279 0.22455224
-0.1562086 -0.0084460229 0.22457103
-0.104578 0.058796942 0.22481179
-0.1030251 0.060273543 0.22480948
-0.10109517 0.062425524 0.22481218
-0.099657208 0.064137273 0.22406267
-0.098096929 0.066411436 0.2234606
-0.096454903 0.068336971 0.22304356
-0.094761401 0.069779061 0.22282559
-0.09313798 0.070794336 0.22281395
-0.16487071 -0.018853132 0.22254527
-0.16421929 -0.016875513 0.22265284
-0.16283071 -0.014860527 0.2229161
