# .PCD v0.7 - Point Cloud Data file format
VERSION 0.7
FIELDS x y z
SIZE 4 4 4
TYPE F F F
COUNT 1 1 1
WIDTH 1049
HEIGHT 1
VIEWPOINT 0 0 0 1 0 0 0
POINTS 1049
DATA ascii
0.11165443 -0.029167309 0.21757106
0.11242191 -0.027577464 0.21755268
0.11401017 -0.025634173 0.21755673
0.12237774 -0.0033728266 0.21720117
0.12259981 -0.0018910868 0.21716379
0.12300093 0.0022055218 0.21705168
0.12375565 0.0028032502 0.21706384
0.12210283 0.0031773485 0.21698436
0.12345827 0.00455344 0.21699667
0.067776442 0.081130736 0.21231045
0.068622075 0.081373118 0.21233752
0.064036295 0.081928656 0.21213207
0.065976694 0.081706762 0.21221864
0.067998871 0.081608906 0.21230456
0.049391091 0.08291626 0.2115006
0.051107101 0.083139718 0.21156396
0.097150028 -0.044594508 0.21846187
0.098655932 -0.043675121 0.21849476
0.073193431 -0.056840315 0.21786404
0.075889431 -0.055641174 0.21813709
0.078519881 -0.054189727 0.21858487
0.081071258 -0.052474223 0.21887001
0.08371985 -0.050970551 0.21926095
0.086200207 -0.049407203 0.21922849
0.088721037 -0.047826212 0.21916431
0.091289565 -0.046304855 0.21916918
0.093918458 -0.044826794 0.21906295
0.096423849 -0.043247879 0.21892519
0.098912165 -0.041613549 0.21884313
0.10130343 -0.039899554 0.21858142
0.10359947 -0.038069978 0.21852162
0.10627593 -0.0360399 0.21856764
0.10847798 -0.034699082 0.21861584
0.10992751 -0.033351604 0.21863291
0.062080018 -0.059692308 0.21833226
0.064129762 -0.059312254 0.21810851
0.066775873 -0.057771288 0.21834387
0.069344729 -0.056249879 0.2186141
0.071865007 -0.054729298 0.21888234
0.074449494 -0.053466558 0.21928458
0.077233814 -0.052434407 0.21965291
0.080029592 -0.050932594 0.21996149
0.082565978 -0.049384061 0.22001688
0.085102364 -0.047835544 0.22007228
0.087638743 -0.046287004 0.22012767
0.090351336 -0.044456784 0.2201592
0.092851192 -0.042900153 0.2200682
0.095329553 -0.041226957 0.22011
0.097845361 -0.039541494 0.21993878
0.10024032 -0.03764946 0.21976244
0.10262617 -0.035949726 0.21949473
0.10511339 -0.034304582 0.21905228
0.10759788 -0.032761849 0.21862899
0.10992834 -0.031163912 0.21856438
0.11131261 -0.029408213 0.21856594
0.055029146 -0.059935868 0.2182177
0.057058293 -0.058989123 0.2182712
0.059942059 -0.058065712 0.21845013
0.062552564 -0.057013281 0.21907809
0.065371856 -0.056063361 0.21952154
0.068375975 -0.054885238 0.21960773
0.07077653 -0.053451277 0.21966115
0.10196627 -0.033991773 0.22032924
0.10390896 -0.032175574 0.22008762
0.10617021 -0.030314002 0.21969591
0.10867864 -0.028782327 0.21946584
0.11092854 -0.027072769 0.21897255
0.11293839 -0.025032941 0.21859808
0.11490184 -0.023430739 0.21852551
0.05086286 -0.060138442 0.2172364
0.053391635 -0.059152015 0.21790963
0.0558278 -0.057544641 0.21859074
0.058497701 -0.056699447 0.21919706
0.060632873 -0.056078874 0.21932773
0.1059414 -0.028445918 0.22031817
0.10770304 -0.026555344 0.22033107
0.10975995 -0.024743695 0.22006947
0.11230531 -0.023047093 0.21946442
0.11483441 -0.021391258 0.21903348
0.1164434 -0.019372009 0.21866167
0.046795353 -0.059440374 0.21746598
0.0487752 -0.058732845 0.21763748
0.052863229 -0.05680988 0.21903209
0.054004878 -0.056594878 0.21907218
0.1097911 -0.022675179 0.22029492
0.11121415 -0.020796664 0.22027704
0.11320968 -0.018935539 0.21970344
0.11594221 -0.017376076 0.2191225
0.042559091 -0.058465786 0.21801782
0.044996955 -0.057550035 0.2184626
0.047279309 -0.057245813 0.21881686
0.1126857 -0.016997784 0.22023541
0.11467285 -0.014944867 0.219859
0.11679886 -0.013150194 0.21929909
0.03838668 -0.057543874 0.21794428
0.040812016 -0.056237578 0.21852003
0.042933431 -0.056014881 0.21860003
0.11603817 -0.011278153 0.21992378
0.11826876 -0.0093301767 0.21836644
0.12034807 -0.0075283656 0.21824962
0.034315627 -0.056545772 0.21779267
0.036837928 -0.055515252 0.21831684
0.038929552 -0.055154897 0.21840888
0.11794282 -0.0069458419 0.21813284
0.11897583 -0.0050269039 0.21888727
0.12110263 -0.0034268722 0.21828263
0.12258671 -0.0013570804 0.21814784
0.030189136 -0.055571139 0.21762598
0.032552026 -0.054458328 0.21812552
0.11864628 -0.0030587343 0.21904103
0.12011811 -0.00099732447 0.21885358
0.1221073 0.00062909443 0.21826993
0.12362556 0.0021263352 0.21808112
0.026111506 -0.054298632 0.21693118
0.02871155 -0.053610034 0.21778603
0.1188442 0.0014904253 0.21987538
0.1212168 0.0020554466 0.21829753
0.12328093 0.0061457129 0.21794087
0.024262408 -0.052966207 0.21673752
0.12257625 0.0078030024 0.21786001
0.12364894 0.0088182725 0.21787214
0.020222876 -0.051164471 0.21720506
0.1212426 0.010364984 0.21845311
0.12269478 0.01157865 0.21829939
0.016284481 -0.050039157 0.21675903
0.018197976 -0.049102813 0.21736892
0.11939169 0.012798794 0.21957523
0.12127142 0.01401082 0.21904866
0.014623478 -0.047646429 0.21711272
0.016546536 -0.047292989 0.2172444
0.11795981 0.015513676 0.21943131
0.11964187 0.016557444 0.21946752
0.010638129 -0.046537846 0.21658793
0.012661427 -0.045993328 0.21704432
0.11896734 0.018995145 0.21923499
0.0086829662 -0.044235859 0.21682605
0.11854166 0.021202354 0.21827532
0.0069633313 -0.042669997 0.2167064
0.11826809 0.026068237 0.21807426
0.11752425 0.028391283 0.21800801
0.11783017 0.032710008 0.21727763
-0.00029285997 -0.035615444 0.21618749
0.1163305 0.0358789 0.2171233
-0.0019294657 -0.032953586 0.21603684
0.11406906 0.037921026 0.21799302
-0.0052135736 -0.031354874 0.21585202
-0.0035259612 -0.030631162 0.2158985
0.11297767 0.040500373 0.21812296
0.11491051 0.04172118 0.21696511
-0.0069119297 -0.029066868 0.21571058
-0.0051529855 -0.027947675 0.21574758
0.11133356 0.04303873 0.21787211
0.11331874 0.044291258 0.21685964
-0.0086404532 -0.026586067 0.21552333
-0.0067697689 -0.025382269 0.21560077
0.10974728 0.045855351 0.21785407
0.11177655 0.046927586 0.21684864
-0.0077771842 -0.022725005 0.21547607
0.10841783 0.047998555 0.21740571
0.11020185 0.049459405 0.2164235
-0.011464845 -0.021327503 0.21509469
-0.0095694065 -0.02042095 0.21533027
0.10743231 0.050967559 0.21602738
0.10858904 0.052107561 0.2159722
-0.011554692 -0.017488979 0.21515687
0.10535589 0.053815331 0.21642137
0.10705926 0.054466955 0.21587533
-0.012689743 -0.014860065 0.21502782
0.10413929 0.055952474 0.21637174
0.1054523 0.057063986 0.21572691
-0.014383476 -0.012364359 0.21488005
0.098911867 0.057887714 0.21732047
0.10149127 0.0586037 0.2162161
0.10406645 0.059601199 0.21548524
-0.015620146 -0.0095929904 0.21472085
-0.014380161 -0.0075686881 0.21472968
0.098364085 0.058992103 0.21721065
0.099855676 0.060692593 0.21600316
0.10228971 0.061797246 0.21533372
-0.017035943 -0.0070253694 0.21454541
-0.015203122 -0.0059042135 0.2146437
0.095983356 0.063268371 0.21603024
0.098363057 0.063402846 0.21571597
-0.018104557 -0.004408719 0.21414834
-0.016620707 -0.0031110942 0.21449792
0.092128523 0.064283758 0.21684165
0.094254315 0.064564653 0.21654133
-0.019388061 -0.0016257763 0.21429522
-0.017628785 -0.00041044224 0.21437183
-0.016473677 0.0009361105 0.21437693
-0.020485181 0.00074793957 0.21421838
-0.01908594 0.0021081809 0.21423304
-0.017903659 0.0040921792 0.21421926
-0.0200263 0.0047949138 0.21396242
-0.018303033 0.0062338621 0.21412453
-0.017113525 0.0080239745 0.21412826
-0.019274313 0.008532241 0.21344817
-0.017558884 0.010282701 0.2140391
-0.018706705 0.01302894 0.21362515
-0.017141197 0.014963834 0.21390931
-0.01969197 0.015502555 0.21296243
-0.017778683 0.017225431 0.21361752
-0.016364615 0.019115079 0.21381088
-0.018927176 0.019689536 0.21289821
-0.01692925 0.021438666 0.21364576
-0.015541602 0.023394078 0.21371034
0.072805375 0.076502092 0.21561581
-0.018061329 0.023736469 0.21285191
-0.015851583 0.025547542 0.21349722
-0.013766598 0.027539514 0.21365301
0.069126055 0.077817209 0.21535115
0.071468264 0.078630917 0.21475798
-0.017055247 0.027749348 0.21257827
-0.014642175 0.029455956 0.21310341
-0.01318964 0.030878767 0.21357186
0.0626987 0.078317188 0.21519457
0.064949274 0.078782909 0.21496987
0.067353077 0.07953237 0.21436092
0.069902733 0.080605678 0.2136846
-0.015962351 0.03191565 0.21249041
-0.013819885 0.033748243 0.21315448
-0.011811007 0.035879228 0.21347146
-0.010245342 0.037261479 0.21349229
0.05809794 0.078366227 0.21500437
0.060689911 0.079193458 0.21461345
0.063201711 0.080388688 0.21380983
0.065516211 0.081186228 0.21338715
-0.016370442 0.034194246 0.21233611
-0.014876079 0.036128968 0.21233654
-0.01252811 0.03761686 0.21259515
-0.010501549 0.03849639 0.21344301
0.051619619 0.078509897 0.21473426
0.054144487 0.079115562 0.21475415
0.056600332 0.080039434 0.21440928
0.059167143 0.081399597 0.21356054
0.061635956 0.082538038 0.2130293
0.063678965 0.08290574 0.21308808
-0.013703089 0.040092304 0.21180293
-0.011599474 0.042185828 0.21240593
-0.0093222968 0.04362249 0.21302527
-0.007074289 0.045385025 0.21331555
-0.0052348152 0.046952609 0.21339355
0.047259666 0.078698076 0.21447447
0.049772598 0.079520263 0.21415
0.052508578 0.080899432 0.21375979
0.055070683 0.082302958 0.21311216
0.057314444 0.082489826 0.21299423
-0.012196478 0.043458417 0.21221648
-0.0098658316 0.04589577 0.21223557
-0.0080720931 0.047463026 0.21236315
-0.0056217611 0.049054679 0.21288383
-0.0035892501 0.050933041 0.2133179
-0.0013098456 0.05315192 0.21335992
0.037967671 0.076892696 0.21422526
0.040313773 0.077935107 0.21424785
0.043040086 0.079133801 0.21403231
0.045677833 0.080320939 0.21368845
0.048288558 0.081933573 0.21295962
0.051127538 0.082668342 0.21261741
0.053623226 0.083658457 0.21265219
-0.006784115 0.051345911 0.21200755
-0.0044190623 0.053151324 0.21228655
-0.0017768741 0.054769501 0.21273093
0.00062229112 0.056456067 0.21291517
0.0028757825 0.058264442 0.21319011
0.0052263662 0.060085673 0.21341032
0.0075115487 0.061900046 0.21344706
0.010207817 0.063662112 0.21350232
0.01160283 0.064513803 0.21353279
0.026327703 0.073329769 0.21385983
0.028505361 0.074385978 0.21391597
0.031191412 0.075838581 0.21387318
0.033829369 0.077051714 0.21382025
0.036501322 0.078228988 0.21368718
0.03909117 0.079653993 0.21337254
0.041595034 0.081250988 0.21274312
0.044220015 0.082317762 0.21246748
0.046603784 0.083219834 0.21237817
-0.00062642992 0.058713648 0.21196167
0.0017640218 0.060439989 0.2119893
0.0041936934 0.062004734 0.21242893
0.0067107566 0.06357836 0.21291749
0.0092842802 0.065208718 0.21313101
0.01179627 0.066803001 0.21320765
0.014321763 0.068427823 0.21324833
0.016877856 0.06994275 0.21322687
0.019602092 0.071422219 0.21323687
0.022203853 0.072971374 0.21328481
0.024741482 0.074487843 0.21329105
0.027394915 0.076054774 0.213036
0.029930016 0.077523068 0.21277992
0.032487221 0.079033554 0.21277167
0.035135154 0.080077663 0.21293496
0.072153971 -0.052774005 0.2206977
0.074197292 -0.051927965 0.22075491
0.076752909 -0.050974682 0.22092678
0.079299569 -0.049698375 0.22123645
0.081839338 -0.048146706 0.22132513
0.084393978 -0.046587028 0.22138098
0.086948633 -0.04502739 0.22143675
0.0893884 -0.043355633 0.22138323
0.091924518 -0.041590247 0.22132152
0.09437035 -0.039950009 0.22120617
0.096829452 -0.038312979 0.22125554
0.099117845 -0.036634669 0.2212967
0.10071024 -0.035339713 0.22132137
0.062597506 -0.055461526 0.2203902
0.065125898 -0.054676838 0.22054636
0.067680217 -0.053629875 0.22086453
0.07013993 -0.05203497 0.22130994
0.072659083 -0.050517824 0.22180656
0.075250156 -0.049155086 0.22216767
0.077957779 -0.047667101 0.22223392
0.08046975 -0.046022329 0.22245908
0.083091639 -0.044559687 0.22275269
0.085778862 -0.043143693 0.2227715
0.088339165 -0.041570075 0.22263691
0.090894975 -0.03983428 0.22266892
0.093223065 -0.038043916 0.22244938
0.095734097 -0.036438677 0.22221699
0.098295748 -0.034869991 0.22213756
0.10068306 -0.033276744 0.22168174
0.10283345 -0.031191703 0.22132178
0.10472391 -0.029583406 0.22130531
0.055718917 -0.056029998 0.22012603
0.058211904 -0.055298351 0.22035071
0.060844705 -0.054228075 0.22113287
0.063385993 -0.052743889 0.22180666
0.066120885 -0.051657017 0.22208863
0.068833366 -0.050444543 0.22243851
0.071436122 -0.049095508 0.2225555
0.073194727 -0.048226375 0.22260033
0.092733502 -0.036161594 0.22302279
0.094967119 -0.034651171 0.22306702
0.097364977 -0.032643255 0.22310242
0.099506535 -0.030930281 0.22289698
0.10182817 -0.029269706 0.22247522
0.10431308 -0.027643085 0.22171925
0.10650281 -0.025877561 0.22136664
0.1085954 -0.023794707 0.22128232
0.049520373 -0.056102596 0.21987417
0.051712867 -0.055590987 0.2201149
0.054215774 -0.05476518 0.22095056
0.056920834 -0.053755797 0.221606
0.059475727 -0.05260697 0.2221227
0.061680831 -0.051621925 0.22223482
0.10132932 -0.027472354 0.22310252
0.10336009 -0.025205731 0.22302644
0.10536088 -0.023549467 0.22259712
0.10799819 -0.02203539 0.22174056
0.10999152 -0.020258136 0.22126047
0.11134979 -0.018354241 0.22122455
0.045516036 -0.055141605 0.22068116
0.047832478 -0.054903731 0.22061461
0.050199252 -0.053860255 0.22133847
0.052400116 -0.053286754 0.22190654
0.10279998 -0.022997305 0.22302237
0.1043717 -0.021589171 0.22301832
0.1066884 -0.019712418 0.22276805
0.10895954 -0.017846812 0.22238979
0.11136115 -0.016274583 0.22170302
0.11338557 -0.01430123 0.22128963
0.11476882 -0.012770251 0.22118948
0.040477868 -0.05478549 0.2194621
0.043934543 -0.053649835 0.22105171
0.045987815 -0.053106703 0.22149692
0.048520833 -0.052514702 0.22172326
0.10816146 -0.015602144 0.22301021
0.11005541 -0.013780118 0.22266088
0.11250439 -0.01219171 0.22202809
0.11459987 -0.010718078 0.22143745
0.036817767 -0.054131255 0.21952093
0.03937928 -0.053297766 0.22038101
0.04180938 -0.052248172 0.22135779
0.043990344 -0.051924314 0.22151898
0.10950962 -0.011696092 0.2229428
0.11160803 -0.010158136 0.22283152
0.11381914 -0.0085711749 0.22207977
0.11562787 -0.005915123 0.22134334
0.032951836 -0.053188778 0.21923123
0.035303853 -0.052357703 0.22015736
0.03750965 -0.051156864 0.22113964
0.11519967 -0.0036308812 0.22195247
0.11612761 -0.0025836201 0.22187409
0.029387247 -0.051881097 0.21933344
0.031190358 -0.051351685 0.21985877
0.033567645 -0.050165169 0.22084451
0.03564664 -0.049687352 0.22110668
0.11120899 -0.0018470883 0.22270338
0.11285186 -0.0011419207 0.22274879
0.11525878 7.9905614e-05 0.22220352
0.11781551 0.0023477236 0.22083995
0.027370742 -0.049534831 0.22060333
0.029352173 -0.049111553 0.22065938
0.031554691 -0.048917551 0.22091474
0.11185054 0.00094179157 0.22229753
0.11417161 0.0026252172 0.22166163
0.11658047 0.0042812554 0.22092544
0.11786535 0.0059738029 0.22072819
0.020420536 -0.049392641 0.21847047
0.022533193 -0.048090536 0.21918377
0.025891138 -0.047563691 0.22062016
0.02723385 -0.047433686 0.22069101
0.11418751 0.0047094668 0.2216184
0.11543278 0.0069004251 0.22113951
0.11717775 0.0085435566 0.22068995
0.1185827 0.010537736 0.22061436
0.019229744 -0.047979977 0.21851395
0.021382792 -0.046993464 0.21926054
0.023481019 -0.046547145 0.21950798
0.11672641 0.0097591355 0.22081302
0.11901189 0.011445284 0.22060347
0.01451027 -0.046007827 0.21812192
0.018061522 -0.046400726 0.2186487
0.019739067 -0.045550555 0.21932331
0.11376788 0.014218184 0.22230418
0.11721641 0.01662682 0.22036724
0.011122849 -0.044754174 0.21794368
0.013096355 -0.044767953 0.21802515
0.11354525 0.015733631 0.22213867
0.11654811 0.016965337 0.22052948
0.117992 0.017977171 0.22035666
0.0096388534 -0.04324019 0.21783528
0.011086192 -0.042709898 0.2181959
0.0053641386 -0.041490514 0.21760516
0.0075618811 -0.041142989 0.21772753
0.0095326267 -0.040111728 0.21856195
0.11401702 0.024584208 0.22144666
0.0050978661 -0.040798359 0.2175725
0.0063524172 -0.03960894 0.21761099
0.0081193335 -0.038790409 0.21834861
0.11345363 0.027040385 0.22092588
0.11458407 0.028547589 0.22088654
0.0046088062 -0.03427818 0.2193505
0.0053840131 -0.0341582 0.21937852
0.11190244 0.029465798 0.22129595
0.11360727 0.030786499 0.22035897
0.00027873367 -0.033682756 0.21721834
0.0028951652 -0.033118624 0.21877353
0.0044574216 -0.032826543 0.21929879
0.11064462 0.032146532 0.22129163
0.11252005 0.033611618 0.22024041
-0.00062911212 -0.032195382 0.21730441
0.001222603 -0.03106482 0.21851221
0.0023671575 -0.029593538 0.21911156
0.11148738 0.036339231 0.21954878
0.11266537 0.037678372 0.21951994
-0.0025947168 -0.029502776 0.21702984
-0.00042629614 -0.028417267 0.21849494
0.0013087802 -0.027752254 0.21901041
0.1099221 0.03904162 0.21985433
0.11165705 0.040156409 0.21940091
-0.0039128922 -0.027119532 0.21691896
-0.0020392686 -0.02602116 0.21813709
-0.00042891502 -0.025429919 0.21886626
0.10631564 0.040729452 0.22116654
0.10823627 0.041410252 0.22024634
0.11005117 0.042563964 0.21925944
-0.0056989789 -0.024667334 0.21662369
-0.0041989014 -0.024678864 0.21668546
0.10511926 0.043005213 0.22104606
0.10667432 0.043937325 0.22027312
0.10854659 0.045172956 0.2191827
-0.0061728284 -0.02297017 0.21655089
0.10370257 0.045511197 0.22090933
0.10505265 0.046445984 0.22028315
0.10693389 0.047348011 0.21932885
-0.0092746988 -0.018750355 0.21636276
-0.006948255 -0.017433722 0.21810286
-0.0058475919 -0.016343173 0.2183589
0.10169578 0.048639752 0.22072886
0.10337543 0.049007457 0.22026035
0.10545596 0.048761565 0.21987787
-0.010204155 -0.017036702 0.21649852
-0.0082411878 -0.015590877 0.21773659
-0.0068506524 -0.014600228 0.21826307
0.10052647 0.050031282 0.22063725
0.10176647 0.051306907 0.2201068
-0.011656363 -0.013907145 0.21621571
-0.0098021068 -0.013045385 0.21756637
-0.0082641989 -0.012062707 0.21812552
0.10038617 0.054562364 0.2187369
-0.013166007 -0.011679855 0.21590982
-0.011271566 -0.010606854 0.21668763
-0.0096429288 -0.0097273523 0.21799566
0.099387884 0.056713261 0.21837823
0.10024981 0.057563234 0.21838684
-0.014197636 -0.0095124273 0.21579947
-0.012770269 -0.0080685308 0.21630861
-0.011052836 -0.0068898527 0.21784893
0.094751939 0.058339734 0.22001468
0.095978871 0.059260838 0.21932669
-0.01483069 -0.0050286744 0.21563284
-0.012085155 -0.0027218387 0.21767567
0.093854725 0.060026985 0.21920788
0.094928287 0.060531233 0.21907684
-0.015297342 -0.0027045952 0.2156229
-0.013463702 -0.0012919521 0.21685381
-0.011900961 8.2524493e-06 0.21759763
0.090386637 0.061429512 0.21986379
0.0915398 0.062926747 0.21886274
-0.016088653 -0.00051094685 0.21543948
-0.015060652 0.00098206289 0.21585713
-0.012636218 0.0018028878 0.21751113
0.091324419 0.065076418 0.21778511
-0.017759558 0.0026489398 0.2152718
-0.016648311 0.0037718411 0.21528228
-0.01473451 0.0060160663 0.21563432
-0.016928855 0.0061282092 0.21519662
-0.015390802 0.0078826165 0.21539579
-0.014136281 0.0090957386 0.2157187
-0.016292486 0.010281659 0.21509236
-0.015149225 0.01081889 0.21512242
-0.013715129 0.016982434 0.21625029
-0.012189601 0.018297793 0.21701171
-0.016380187 0.016875248 0.21488184
-0.014915679 0.01869268 0.21536341
-0.012612883 0.020385697 0.2164517
-0.011026204 0.022055874 0.21694155
0.072688609 0.072530821 0.21778841
0.07435739 0.073329471 0.21779948
-0.015614953 0.021079887 0.21478124
-0.014020499 0.022726905 0.21520263
-0.012321699 0.024262317 0.21571347
0.071490593 0.075307116 0.21665083
0.072700299 0.075197771 0.21679287
-0.014620166 0.02482485 0.21470451
-0.012817729 0.026689261 0.2147201
-0.0112091 0.028030556 0.21474379
-0.0083797649 0.031514123 0.21675314
0.06115995 0.073692694 0.2182806
0.063210264 0.074776515 0.21830748
0.066101857 0.075717106 0.2175186
0.068935215 0.076833226 0.21649827
0.071097024 0.076933473 0.21658365
-0.012787793 0.028936632 0.21465063
-0.012036752 0.03123419 0.2148319
-0.0096435919 0.032962695 0.21631534
-0.0077657625 0.034774315 0.21667612
-0.0063084662 0.036429476 0.2166838
0.056851249 0.074206144 0.21808791
0.059451375 0.075092793 0.21787541
0.062074415 0.076420143 0.21730393
0.06467212 0.077559538 0.21662112
0.067083232 0.077932924 0.21638773
-0.012652453 0.03325012 0.21452075
-0.010883044 0.035092879 0.21514742
-0.0086087622 0.03696074 0.2159754
-0.006363105 0.038684651 0.21650234
-0.0045530312 0.040662318 0.21662293
0.05050214 0.074293442 0.21782476
0.052743789 0.074824557 0.21771169
0.055376071 0.075914547 0.21715979
0.058006469 0.077043131 0.21640588
0.060731947 0.077932253 0.2161926
0.06269256 0.078632347 0.21618572
-0.0094763823 0.039302032 0.21456131
-0.0075180866 0.0409812 0.21508035
-0.0050378665 0.042606257 0.21599594
-0.0029715262 0.04448057 0.21638973
-0.00088705122 0.046330687 0.21659543
0.00072964281 0.047792431 0.21661575
0.043393422 0.073612601 0.21755467
0.045776077 0.074519828 0.21762404
0.048624534 0.075649284 0.21736854
0.051164042 0.076901622 0.21657473
0.053774845 0.077876426 0.21602397
0.056173407 0.078232087 0.21593103
-0.010079999 0.041429214 0.21436958
-0.0084086135 0.042785324 0.21439552
-0.006159015 0.044508711 0.21472996
-0.0040038787 0.046543874 0.21509957
-0.001676552 0.048176799 0.21582064
0.00071077421 0.049900565 0.21631156
0.002914317 0.051768199 0.21653184
0.00479085 0.053350665 0.21660782
0.036639251 0.072778054 0.21730393
0.039337542 0.073840983 0.21733961
0.041889127 0.074858539 0.2170907
0.044534151 0.07641165 0.21663381
0.047097132 0.077503219 0.2160446
0.0498018 0.078264549 0.21566872
-0.0042055584 0.048628848 0.2143845
-0.0024549887 0.05047033 0.2145887
-0.00037522241 0.052308578 0.21486358
0.0021396503 0.053776521 0.21532124
0.0044961683 0.055462036 0.21592119
0.0068488009 0.057293378 0.21628861
0.0092669167 0.059090454 0.21637486
0.011675209 0.060711548 0.2165859
0.014365654 0.062489197 0.21671368
0.016969509 0.064066723 0.21677093
0.019545753 0.065639533 0.2168272
0.022331879 0.067173198 0.21689335
0.024886191 0.068611719 0.21684751
0.027426844 0.070059858 0.21686859
0.03009608 0.071530767 0.21682459
0.032844953 0.072826982 0.21674654
0.035313204 0.0742805 0.21636932
0.037928671 0.075521514 0.21609542
0.040685639 0.076754056 0.21572074
0.043148339 0.077854395 0.21555896
0.045097265 0.078612857 0.21546493
-0.00030981749 0.05438732 0.21436349
0.001482293 0.05565628 0.21439712
0.003848765 0.057407074 0.21455045
0.0060304776 0.059182733 0.21476553
0.0083662793 0.061040446 0.21495549
0.010870829 0.062568091 0.21527743
0.013352852 0.064189263 0.21556713
0.015918829 0.065737769 0.2155748
0.01849594 0.067290857 0.21560927
0.021076759 0.068821728 0.21559002
0.023627035 0.070345312 0.21545978
0.026200945 0.071887851 0.21545316
0.028851463 0.073254853 0.21538588
0.03149299 0.074559927 0.2153064
0.034067959 0.075790919 0.21515845
0.03604785 0.07667198 0.21515481
0.012797117 0.0660109 0.2145361
0.015015014 0.067414917 0.21458293
0.017564677 0.068971545 0.21463862
0.019927749 0.070355974 0.21469207
0.022741647 0.071957387 0.21475722
0.02452641 0.073047034 0.21479619
0.074928939 -0.047552425 0.22365159
0.077135459 -0.04629207 0.22370255
0.07973136 -0.044555016 0.22375442
0.082355402 -0.043068774 0.22381538
0.08485119 -0.041756306 0.22387658
0.087398618 -0.040229071 0.22393312
0.089786641 -0.038679659 0.22398238
0.091409445 -0.037336476 0.22400671
0.063731894 -0.050949398 0.22329913
0.065739706 -0.050214484 0.22335844
0.068384334 -0.049061526 0.22344598
0.071017817 -0.047612946 0.22364703
0.073595077 -0.046264436 0.22393993
0.076120578 -0.044711042 0.22425203
0.078714699 -0.04311236 0.22418296
0.081237622 -0.041526224 0.22425857
0.083819069 -0.040036548 0.22449818
0.086431026 -0.038431998 0.22471923
0.089020371 -0.036844909 0.22460414
0.091464117 -0.035278674 0.22431034
0.093906879 -0.033557624 0.22430122
0.096146628 -0.0318744 0.22411887
0.098274983 -0.030023921 0.2240587
0.054619942 -0.053050026 0.22299147
0.056455761 -0.052302085 0.22304329
0.059057496 -0.051134732 0.22325626
0.061771125 -0.049944073 0.22357593
0.064380728 -0.048491322 0.22387649
0.066999651 -0.046930805 0.2244184
0.069516167 -0.045327485 0.22494259
0.072030477 -0.043980997 0.22524223
0.074814819 -0.042686485 0.22548176
0.077519953 -0.041127384 0.22539458
0.080115378 -0.039643094 0.22558282
0.082725398 -0.038145866 0.22567868
0.085128754 -0.036444094 0.2257237
0.087679438 -0.034794029 0.22563742
0.090180747 -0.033041537 0.22546838
0.092579365 -0.031331982 0.22550166
0.095126443 -0.029734787 0.22516778
0.097719714 -0.028135639 0.22464111
0.10019842 -0.026453052 0.22430187
0.10212527 -0.024901967 0.22405589
0.050540645 -0.052137278 0.22279556
0.052818328 -0.051844805 0.2229154
0.055133119 -0.050563499 0.22344008
0.057548933 -0.049059801 0.22426674
0.060146824 -0.047650781 0.22478342
0.063111007 -0.04676595 0.22514506
0.066054791 -0.045297567 0.22521967
0.068276703 -0.043982428 0.2252695
0.092556708 -0.02929689 0.22580411
0.09421654 -0.027724277 0.22582281
0.09630248 -0.025781877 0.22566175
0.098742723 -0.023937695 0.22535603
0.1011997 -0.02236215 0.22470966
0.10339188 -0.020481173 0.22442679
0.10545485 -0.018749382 0.22411373
0.046092927 -0.051657528 0.2226752
0.048579384 -0.050984714 0.22317953
0.051045638 -0.049553026 0.22395362
0.053663857 -0.04850344 0.22464526
0.056288261 -0.047507036 0.22488858
0.058262646 -0.046646595 0.22494252
0.098366126 -0.022042859 0.22581464
0.10022194 -0.020210683 0.22581455
0.10224026 -0.018238269 0.22558191
0.10471103 -0.016814802 0.2247829
0.10694009 -0.01508125 0.2241452
0.10846167 -0.013209079 0.22394867
0.041912004 -0.050885443 0.22250023
0.044390127 -0.050175529 0.22316948
0.046887569 -0.04853823 0.22404413
0.049044579 -0.047593828 0.22459428
0.10179954 -0.016217709 0.22577259
0.10370596 -0.015280622 0.22532068
0.10639472 -0.013781789 0.22458282
0.1083025 -0.012729187 0.22392707
0.038045608 -0.049882874 0.22229837
0.040188469 -0.049204681 0.22325028
0.042743038 -0.047814704 0.2240126
0.045299102 -0.046864837 0.22436222
0.033573732 -0.048721794 0.22208662
0.036096804 -0.048029486 0.22303566
0.038697001 -0.047238231 0.22398311
0.040863249 -0.046660174 0.22422956
0.029640995 -0.047614314 0.22196366
0.031947289 -0.047082707 0.2228757
0.034300141 -0.04620672 0.22383487
0.028093014 -0.046074986 0.22222133
0.03030161 -0.044726584 0.22351585
0.032535657 -0.044774089 0.22382893
0.026414797 -0.043202944 0.22352862
0.028521063 -0.043413226 0.22362162
0.024722056 -0.042082191 0.22342408
0.11139257 0.012284104 0.22427006
0.11313944 0.013443406 0.22330399
0.018041071 -0.040991396 0.22222798
0.019799855 -0.039798852 0.22302224
0.11244288 0.015891638 0.22319858
0.014505263 -0.039295156 0.22191636
0.016428407 -0.03920757 0.22223142
0.01860917 -0.038552854 0.22306268
0.013010498 -0.037374008 0.22195414
0.014243469 -0.036864463 0.22253241
0.011315871 -0.034964383 0.22248708
0.012550645 -0.034527019 0.22268791
0.0069529153 -0.033855293 0.22043464
0.0091521926 -0.033180095 0.22142006
0.011419207 -0.03309083 0.22259647
0.005282443 -0.031662825 0.22048503
0.0075827576 -0.030356474 0.221982
0.0038169362 -0.02956678 0.22059672
0.005804874 -0.028213192 0.2219855
0.0043226816 -0.02576359 0.22207555
0.10528405 0.037651174 0.22322351
-0.0015903898 -0.024304025 0.21978463
0.00020888075 -0.023474399 0.22083367
0.0023496523 -0.022891305 0.22190447
0.10312551 0.038437605 0.22355162
0.1050391 0.039911434 0.22258916
-0.001810085 -0.023846284 0.21976125
-0.00053685158 -0.021757178 0.22086704
0.00085769221 -0.020790733 0.22177741
0.1016067 0.041033398 0.22343905
0.10389107 0.042369388 0.22248968
0.10478114 0.04407122 0.22200008
-0.0024127662 -0.018572357 0.22112092
-0.0006285347 -0.0176767 0.22161859
0.10012466 0.043787722 0.22359304
0.10234175 0.045012698 0.22246373
0.10367718 0.045883078 0.22189796
-0.0056310929 -0.017691687 0.21941145
-0.0040535033 -0.016646571 0.22024435
-0.0021406151 -0.015314567 0.22144964
0.09842778 0.046179574 0.22349484
0.10063209 0.047603253 0.22235906
0.10237983 0.048109546 0.22177488
-0.0055780374 -0.013584387 0.22014296
-0.0038309954 -0.012482216 0.22129247
0.097073421 0.048661433 0.22341092
0.099791378 0.04904002 0.22190306
-0.0065105036 -0.012041797 0.2199232
-0.0050986595 -0.0099626975 0.22117868
0.0951837 0.051326916 0.22330551
-0.0088136718 -0.0080770524 0.21974219
-0.006431669 -0.0073176576 0.22079842
-0.0053896345 -0.0055033853 0.22104149
0.091318339 0.05282164 0.22317614
0.093372472 0.05360477 0.22274783
0.09467797 0.055633608 0.22199321
-0.0098161213 -0.0062349467 0.21928079
-0.0079316199 -0.0047007352 0.22044286
-0.0063530542 -0.0035981713 0.2209422
0.089721397 0.054934621 0.22304423
0.091981851 0.055394407 0.22263254
0.094357505 0.056423213 0.22132809
-0.011308048 -0.0029521147 0.21875781
-0.0094135441 -0.0021376284 0.21984152
-0.0074976571 -0.00045925938 0.22069351
0.088270135 0.056943487 0.22259878
0.089483023 0.05941233 0.22089136
0.091281548 0.060687944 0.22092508
-0.011550035 -0.0017381068 0.21866807
-0.010602985 0.00041503087 0.21891962
-0.0085029937 0.0019098567 0.2198841
-0.0070332363 0.0034040241 0.22069456
0.086841494 0.060107831 0.22126198
0.089077353 0.060602933 0.22083732
0.090902582 0.061268274 0.22089134
-0.011564411 0.002994006 0.21851905
-0.0099561214 0.0044256807 0.21942994
-0.0076493509 0.0059777256 0.22048625
-0.0063802451 0.0076683769 0.22058749
-0.012193542 0.0051490194 0.21842554
-0.011197995 0.0068630213 0.21896625
-0.0090015456 0.0085636927 0.21983932
-0.0075084642 0.009923989 0.22047044
-0.011263128 0.0091510182 0.21933943
-0.010063808 0.011106498 0.21990426
-0.0085177571 0.012723088 0.22034103
-0.010620162 0.013533564 0.2200627
-0.0094370469 0.015352945 0.21995178
-0.0078320056 0.01707389 0.22023274
-0.01051452 0.018443558 0.21865484
-0.0086342841 0.019532066 0.21942
-0.0069670714 0.021087557 0.22005646
-0.011191204 0.020025032 0.21799977
-0.0098231919 0.021881631 0.21827997
-0.0076081604 0.023473736 0.21958022
-0.0059090219 0.025392024 0.22005057
-0.0080046132 0.025420554 0.21920276
-0.00638723 0.02748156 0.21990018
-0.0044824034 0.029445082 0.21998169
-0.0030929968 0.031177271 0.21998447
0.057552919 0.06824293 0.22130774
0.060074292 0.068685122 0.22132801
0.062550999 0.06963826 0.22063281
-0.0073071122 0.031182084 0.21818437
-0.0056095719 0.031722192 0.2190803
-0.003449358 0.033519775 0.219771
-0.00199816 0.035467498 0.21989472
0.053754684 0.06870643 0.22113746
0.055767082 0.0694113 0.2208938
0.058373258 0.070891075 0.22036316
0.06067105 0.072072417 0.2194414
-0.0080950968 0.032371663 0.21773924
-0.0066497922 0.034135733 0.217914
-0.0045097768 0.035945002 0.21866311
-0.0021712072 0.037680913 0.21948095
-0.0001437813 0.039728563 0.21983702
0.0015113093 0.041268248 0.21985656
0.049355451 0.07037361 0.22090477
0.051778469 0.070733532 0.22038078
0.054380629 0.07168255 0.21936196
0.056904174 0.072997503 0.21920532
0.059349608 0.073607475 0.21921037
-0.0067060366 0.036376365 0.2176705
-0.0052417479 0.037997905 0.21767972
-0.0033260882 0.039953109 0.21804334
-0.0010698959 0.041628808 0.21881285
0.0012934655 0.043270592 0.21941982
0.003574919 0.045084517 0.2197556
0.0057602748 0.046837099 0.21985599
0.040272325 0.068296194 0.22059755
0.042113077 0.069300435 0.22064151
0.045030221 0.070508473 0.22072318
0.047557764 0.071523048 0.22036427
0.050084911 0.07268545 0.219421
0.052883483 0.073573947 0.21894634
0.05507898 0.074186385 0.21901712
-0.003493987 0.042110566 0.21762225
-0.0019558035 0.043558326 0.21766216
0.00010086223 0.045498021 0.21802448
0.0025318749 0.047241528 0.21868552
0.0050387494 0.048918843 0.21938033
0.0072572455 0.050730813 0.21968092
0.0096210577 0.052670408 0.21983123
0.011711914 0.05423598 0.21986781
0.025598746 0.062925264 0.22016448
0.02761708 0.063998044 0.22021356
0.030125732 0.065509699 0.22026898
0.032896429 0.066853084 0.22034043
0.035638787 0.068003647 0.22016355
0.038330477 0.069243811 0.2200422
0.040996164 0.070802137 0.21982221
0.043634292 0.072206393 0.21960337
0.046152208 0.073313184 0.21918567
0.048634585 0.074240491 0.21875122
0.00023887306 0.047718845 0.21759927
0.0018180832 0.049148332 0.2176192
0.0038899966 0.051051978 0.2178978
0.0062489361 0.05291621 0.2182966
0.0086773299 0.054559235 0.21870768
0.011139411 0.056041189 0.2191848
0.013585772 0.057728782 0.21939686
0.016272113 0.059369974 0.21948063
0.0188745 0.060916141 0.21955113
0.021393675 0.062484942 0.21957968
0.024004085 0.063889936 0.21970463
0.026610384 0.065574914 0.21948984
0.029128363 0.067117743 0.21941853
0.031654723 0.068631999 0.21930972
0.034216583 0.070144318 0.21892801
0.036925044 0.071643978 0.21868317
0.039572105 0.072719701 0.21851432
0.041957393 0.073386274 0.21850424
0.0059783272 0.054875609 0.21761
0.0077958368 0.056402065 0.21763666
0.010235477 0.058061644 0.21782529
0.012607373 0.059769452 0.21802846
0.015057918 0.061385848 0.21832404
0.017564282 0.062958911 0.21828447
0.020087665 0.064508751 0.21827655
0.022696968 0.065929204 0.21821478
0.025322083 0.067372158 0.21811545
0.027996242 0.068926789 0.21807177
0.030553117 0.070328064 0.21813269
0.033116236 0.07157331 0.2181986
0.035044342 0.072519653 0.21824798
0.069759995 -0.043318436 0.2263108
0.071558684 -0.042520769 0.22635947
0.074167818 -0.041231126 0.22642598
0.076653615 -0.039830867 0.22648396
0.079248905 -0.038294941 0.22654216
0.081834063 -0.036833093 0.22660227
0.084319457 -0.035087992 0.2266494
0.086827993 -0.033438884 0.2267005
0.089191265 -0.031881329 0.22674851
0.091325551 -0.030332427 0.22678743
0.060391642 -0.046127599 0.22601482
0.062697709 -0.045343537 0.22611511
0.065116853 -0.044033743 0.22623158
0.067771569 -0.042553075 0.22625074
0.070357829 -0.041000117 0.226603
0.088428542 -0.030458923 0.22695078
0.091082096 -0.028717957 0.22672677
0.093205839 -0.026835199 0.22675475
0.095275342 -0.024804499 0.22677588
0.096847162 -0.023535792 0.22680055
0.051335778 -0.047715735 0.2256934
0.053238712 -0.047154933 0.22575378
0.05589265 -0.04603361 0.22589159
0.058566213 -0.044733658 0.22623
0.061185688 -0.043171778 0.22677048
0.092860505 -0.025197066 0.22668917
0.094978318 -0.023628559 0.22672679
0.097186983 -0.021635149 0.22675478
0.099108338 -0.019404944 0.22676356
0.10065509 -0.017845497 0.22677809
0.049682088 -0.046346754 0.22558258
0.051902436 -0.045402255 0.22593325
0.054350141 -0.043874953 0.22657262
0.09968704 -0.017835535 0.22673808
0.1007774 -0.016892474 0.22675316
0.042664524 -0.04613458 0.22528821
0.045112163 -0.045389533 0.22548658
0.047793485 -0.044306371 0.22591174
0.038676213 -0.045749884 0.2251126
0.041083828 -0.044784233 0.22544274
0.034781661 -0.044863425 0.2249251
0.037116364 -0.043957341 0.22525275
0.030741502 -0.04332149 0.22471108
0.032885939 -0.042913813 0.22503909
0.026559711 -0.042240672 0.22450571
0.028680257 -0.041768886 0.22471935
0.024885703 -0.04057898 0.22465394
0.021124994 -0.038996041 0.22418103
0.01686655 -0.037028503 0.22394472
0.015296619 -0.035622217 0.22383618
0.013555199 -0.033588912 0.22374451
0.0099936463 -0.031669062 0.22349474
0.011697344 -0.031268977 0.22393008
0.0085596032 -0.029389452 0.2233644
0.010150474 -0.028710179 0.22400695
0.006792292 -0.027145043 0.22322145
0.0048375055 -0.02493858 0.22307205
0.0035362951 -0.022463404 0.22294103
0.0017758571 -0.019647446 0.22286633
0.10027265 0.040448312 0.22493288
0.00057343766 -0.017273892 0.22265668
0.098896153 0.04293995 0.22479825
-0.0010489449 -0.014441133 0.22250125
0.00076398998 -0.013383542 0.22322293
0.09719298 0.045485012 0.22464854
-0.0025275536 -0.012071765 0.22236629
-0.00089365616 -0.01081952 0.22303694
0.095926106 0.048227023 0.22451054
-0.0039081685 -0.0093263974 0.22222351
-0.0023686998 -0.0082464246 0.22266915
0.094164655 0.050549451 0.22436543
-0.004818771 -0.0073582353 0.22212444
-0.0038588792 -0.0056673503 0.22252429
0.092890024 0.05193476 0.22426975
-0.0051653646 -0.0030498886 0.22212152
-0.0029180087 -0.0015539629 0.22316152
-0.0061526932 -0.00052657817 0.2218553
-0.0044643097 0.00095356442 0.22264835
-0.006753251 0.0017374083 0.22175968
-0.00561966 0.0035990598 0.2219573
-0.0060880221 0.0060280333 0.22165227
-0.0047935769 0.0076553817 0.22219256
-0.0060862415 0.010341528 0.22182117
-0.0041030869 0.011785395 0.22245003
-0.0072496198 0.012930673 0.22138798
-0.0055929273 0.014346302 0.22168544
-0.006659463 0.016902054 0.22128755
-0.0046249032 0.01855487 0.22179635
-0.0068946667 0.019139474 0.22120772
-0.0056428574 0.021047242 0.22122903
-0.0034915805 0.02256041 0.22193241
-0.0059885792 0.023178326 0.22111812
-0.0046282187 0.02509084 0.22118711
-0.002510637 0.026741605 0.22178701
-0.0049157701 0.027288917 0.22103311
-0.0034425817 0.028791603 0.2210463
-0.0015668496 0.030870669 0.22150199
0.00090871006 0.032531373 0.22245742
0.057315748 0.067823566 0.22231247
-0.0022065863 0.033179797 0.22095926
-0.00043250248 0.034939479 0.22121421
0.0019521825 0.036583073 0.2217163
0.051073417 0.067872055 0.22205505
0.053167012 0.067891479 0.22214024
0.055639982 0.067955658 0.22223964
-0.00093806908 0.03693299 0.22089349
0.00077457353 0.038732976 0.22090721
0.0030329227 0.040497258 0.22114098
0.0055564269 0.042227048 0.22164902
0.044192832 0.067205034 0.22179388
0.046502016 0.067974001 0.22186437
0.049133211 0.068850994 0.22194473
0.051322028 0.069490224 0.22201441
0.002585005 0.042499579 0.22086324
0.0045095831 0.044212967 0.22088836
0.0069042258 0.046213903 0.22095789
0.0088081248 0.048092611 0.22094285
0.010979347 0.050242454 0.22129817
0.012864247 0.051806334 0.22157678
0.037114922 0.065425396 0.22195549
0.039723814 0.066936292 0.2217544
0.042419221 0.068191402 0.22169015
0.04510165 0.069359548 0.22176348
0.04774949 0.070169739 0.22184663
0.0069557689 0.048509464 0.22085387
0.0082434155 0.049878869 0.22086364
0.010338709 0.051706675 0.22089218
0.012836583 0.053535175 0.22097893
0.015242502 0.055300292 0.22114395
0.017790593 0.056733165 0.22142881
0.020308601 0.058371879 0.22157425
0.022881897 0.05997451 0.22160049
0.025560262 0.061418854 0.22145961
0.028088339 0.062837698 0.22131665
0.030636635 0.064409614 0.22132574
0.033296179 0.065765314 0.22139224
0.036079366 0.066770896 0.2214748
0.03867935 0.067975819 0.22154361
0.012979522 0.055792965 0.22087225
0.014485139 0.056997638 0.22089614
0.016696468 0.058319818 0.22094533
0.019341342 0.059857309 0.22100551
0.021970689 0.061462589 0.22106294
0.024154229 0.062615402 0.22111632
