# .PCD v0.7 - Point Cloud Data file format
VERSION 0.7
FIELDS x y z
SIZE 4 4 4
TYPE F F F
COUNT 1 1 1
WIDTH 1363
HEIGHT 1
VIEWPOINT 0 0 0 1 0 0 0
POINTS 1363
DATA ascii
-0.00065738708 0.05739145 0.33754307
0.00035366043 0.058308713 0.33758143
-0.060146868 0.026205733 0.33595419
-0.05809135 0.026837945 0.33601686
-0.055881858 0.02784916 0.33641574
-0.053626131 0.02921962 0.33746591
-0.051529422 0.03045629 0.33791414
-0.049138796 0.031439252 0.33816355
-0.046782698 0.032516889 0.33829173
-0.045164105 0.033141933 0.33832845
-0.0080474801 0.055490814 0.33940446
-0.0064499341 0.056456655 0.3394509
-0.0039456077 0.058988839 0.33955351
-0.0026967451 0.059949916 0.33959576
-0.0015187077 0.061528772 0.33965543
-0.066059932 0.025796436 0.335875
-0.064064257 0.026503839 0.33610368
-0.061712001 0.027312912 0.33640569
-0.059481882 0.028539136 0.33718538
-0.057118215 0.029976323 0.33800891
-0.054850299 0.030782096 0.33814925
-0.052625366 0.03173618 0.33820257
0.0027749985 0.067233622 0.33987126
0.0039369501 0.067887619 0.33990359
-0.069593847 0.026417471 0.33585301
-0.067488365 0.026997872 0.33599395
-0.065361321 0.028216541 0.33713511
-0.063074112 0.029506557 0.33790568
-0.060696837 0.030263387 0.33806762
-0.058658578 0.030801482 0.3381066
0.002478715 0.067963541 0.33988926
0.0035916828 0.069122925 0.33993578
0.010200571 0.074895367 0.3381789
0.011481199 0.07571575 0.3382175
-0.072920211 0.027520664 0.33584753
-0.070987172 0.02780398 0.33593497
-0.068864979 0.02895394 0.3369635
-0.066709653 0.03031864 0.3379592
-0.064846694 0.030920774 0.33803985
0.005300086 0.074178204 0.34010324
0.0064992495 0.075252794 0.34008005
0.0092181601 0.076252162 0.33865064
0.010896202 0.077512793 0.33833244
0.012031253 0.079318188 0.33832923
-0.076600492 0.028703541 0.33584037
-0.074507356 0.028928116 0.3360554
-0.072371013 0.029972069 0.33678716
-0.070266068 0.031058207 0.33772054
-0.068488702 0.031312749 0.33800992
0.0060444064 0.076737225 0.34018666
0.0077060498 0.078271076 0.33965015
0.009898331 0.079668663 0.33918482
0.011856746 0.081209958 0.33883065
0.013031002 0.082772501 0.33844173
-0.079853527 0.029616743 0.33583015
-0.078329243 0.029798441 0.3362101
-0.075942047 0.030833311 0.33723998
-0.073772728 0.031948157 0.33785355
-0.071775697 0.032194093 0.33799839
0.0071237497 0.080298752 0.34030312
0.0086929314 0.081832118 0.34017652
0.01073217 0.083296053 0.33961987
0.012927916 0.084675863 0.3390094
0.014288086 0.086077154 0.33867779
-0.083997041 0.029646792 0.33599335
-0.082123548 0.030728377 0.3366915
-0.079565749 0.031634912 0.33745664
-0.077433795 0.03278742 0.33793494
-0.075487852 0.033262827 0.33798751
0.0085160173 0.083807044 0.34042171
0.0097558759 0.085420176 0.34030828
0.011697162 0.086895093 0.33981234
0.013907436 0.088348985 0.33915016
0.015206467 0.089727528 0.33867005
-0.086976595 0.030810118 0.33578414
-0.085302234 0.031362198 0.33610156
-0.083071858 0.032544844 0.33734876
-0.081051931 0.033512428 0.33793148
-0.079129107 0.033727989 0.33795974
0.0094809197 0.087420598 0.34053847
0.01065496 0.088959776 0.34040919
0.01255158 0.090492412 0.33974293
0.01452006 0.091825001 0.33900955
0.015473653 0.093608931 0.33878675
-0.088735171 0.032426827 0.3358115
-0.086361244 0.033408329 0.33684495
-0.08445438 0.034474909 0.33790314
-0.082513079 0.034712322 0.33795011
0.0097921975 0.091379687 0.34065789
0.011244152 0.092582867 0.34042376
0.013332862 0.093964413 0.33985138
0.015011963 0.095234059 0.33935109
-0.092152625 0.033719547 0.33581054
-0.090297021 0.034370139 0.33629963
-0.088056974 0.035590827 0.33752596
-0.086262524 0.035899915 0.3379423
0.01048607 0.094520815 0.34075776
0.012155328 0.096122406 0.34069526
0.014251959 0.097527266 0.33979234
0.01592112 0.098780498 0.33902836
-0.093385249 0.035468541 0.33607426
-0.091602474 0.036520675 0.33685464
-0.089475855 0.037749983 0.3377254
0.011168484 0.098408982 0.34087926
0.01310565 0.099773362 0.34057403
0.01521853 0.10119551 0.3397153
0.016735341 0.1028074 0.33907038
-0.096870929 0.037507787 0.33586788
-0.095095396 0.037629582 0.33668372
-0.092982605 0.038664415 0.33768579
-0.090837315 0.039124206 0.33798471
0.010820415 0.10022998 0.34092873
0.011915144 0.10186996 0.34097236
0.013652969 0.10342484 0.34018588
0.0160308 0.10468539 0.33911735
0.017250691 0.10594171 0.33916801
-0.10056406 0.038080804 0.33584267
-0.098837517 0.038654961 0.33609071
-0.096508302 0.039747339 0.33767745
-0.094489649 0.039955977 0.3379676
0.010727476 0.10515434 0.34107187
0.012612056 0.10557104 0.34075955
0.014634822 0.10689756 0.33958033
0.016277213 0.10801124 0.33921751
-0.10212539 0.03947321 0.33588892
-0.10004544 0.040524311 0.33687147
-0.098240316 0.041619081 0.33780107
0.010091577 0.10637497 0.34110036
0.011200476 0.10778102 0.34087002
0.013335798 0.10914283 0.34025541
0.015431348 0.11051139 0.33941635
0.016629558 0.11206712 0.33934033
-0.1052477 0.041103095 0.33587798
-0.10366599 0.041453633 0.3364127
-0.10138969 0.042790007 0.33727568
-0.09966521 0.04354798 0.33794245
0.010527674 0.11016315 0.34121627
0.011939209 0.11131507 0.34075415
0.014217231 0.11274235 0.33962169
0.01582263 0.11380887 0.33938211
-0.10642862 0.042889047 0.33591682
-0.10503267 0.043578286 0.33641464
-0.10279727 0.044895876 0.3379887
-0.10103686 0.045088287 0.33804348
0.0094001628 0.11231853 0.34126654
0.010754425 0.11358278 0.34094667
0.013000239 0.11504528 0.34002417
0.014522377 0.116191 0.33946565
-0.10806222 0.045113772 0.33605719
-0.10657375 0.046024602 0.33707002
-0.10440347 0.046921119 0.33805877
0.0096531101 0.11586061 0.341373
0.011547659 0.11716582 0.34079131
0.013511922 0.11846261 0.33980399
0.014520217 0.11997154 0.33954778
-0.11166081 0.046700548 0.335969
-0.10976258 0.046963524 0.33626601
-0.10773163 0.048133276 0.33746803
-0.10616735 0.048645373 0.33808935
0.0088041089 0.11848977 0.34144047
0.010225859 0.11946557 0.34103495
0.012432758 0.1207523 0.3400296
0.013729434 0.12155808 0.33958521
-0.11272198 0.048139296 0.33599901
-0.11114699 0.049018815 0.33662641
-0.10902937 0.050264854 0.33782279
-0.10765493 0.051130094 0.3381452
0.0076518022 0.12056807 0.34148821
0.0089396574 0.12159076 0.34108254
0.010983173 0.1228638 0.33989245
0.012418356 0.12388272 0.33963838
-0.11438712 0.050321095 0.33604398
-0.11253139 0.05123955 0.33679244
-0.11040818 0.052092873 0.33814201
-0.10858901 0.052158393 0.33816469
0.0077645071 0.12379381 0.34137738
0.0096219219 0.12516357 0.34017071
0.011368122 0.12625337 0.33969587
-0.11758895 0.051513232 0.33604255
-0.11615233 0.052147537 0.33607742
-0.11386445 0.053513266 0.33671322
-0.11225586 0.054547593 0.33810195
0.0065118857 0.12619989 0.34164006
0.0083046742 0.12737422 0.3406319
0.010234233 0.12859502 0.33975154
-0.11745618 0.054359864 0.33612737
-0.11528841 0.055654135 0.33719051
-0.11354247 0.056168187 0.33822584
0.0053944327 0.1285242 0.34169543
0.007108558 0.12951826 0.3409937
0.0091586448 0.13077351 0.33983949
-0.1188609 0.056654826 0.33629462
-0.11669212 0.057902437 0.33776757
0.0038519427 0.13082962 0.34174541
0.0056526624 0.13185689 0.34144703
0.0077481382 0.13325639 0.34002236
0.0090500526 0.13436377 0.33990702
-0.12162451 0.058181103 0.33619195
-0.12024856 0.058819596 0.3363263
-0.11802129 0.060035694 0.33774501
0.0024603792 0.13287133 0.34178936
0.0043740757 0.13397701 0.34125292
0.0065395124 0.13544878 0.33994594
0.0078605525 0.13654166 0.33995724
-0.12329851 0.060723919 0.33624738
-0.12158926 0.061071411 0.33645511
-0.11956389 0.062160604 0.33789513
0.0017585456 0.13499238 0.34184361
0.003056448 0.13625483 0.34150219
0.0051182471 0.13763247 0.34038359
0.0069232769 0.13787779 0.33998576
-0.12430845 0.062318254 0.33628255
-0.12291113 0.063246161 0.33690491
-0.12065099 0.064505599 0.33830792
-0.11974178 0.065778613 0.33843675
-7.4140728e-05 0.13789031 0.34190762
0.0016641356 0.13849583 0.34165421
0.0038687885 0.13994372 0.34070709
0.0048496611 0.14130399 0.3400625
-0.1251684 0.063838281 0.33631733
-0.12419787 0.06539645 0.33670747
-0.12217985 0.066647649 0.33821559
-0.0015057139 0.13962471 0.34194201
0.00028933585 0.14066689 0.34153032
0.0026484765 0.14209226 0.34063077
0.0042913891 0.14222641 0.34008318
-0.12727123 0.067341074 0.33639601
-0.12557645 0.067687497 0.33661991
-0.12343772 0.06897749 0.33799455
-0.12261565 0.070677266 0.33854753
-0.0050180443 0.1416223 0.3419607
-0.0031400286 0.14190528 0.34184349
-0.0010910034 0.14279045 0.34112781
0.0011628382 0.1442153 0.34067282
-0.12812227 0.068832189 0.33642998
-0.12697135 0.069874883 0.33666351
-0.12470056 0.071225256 0.33772013
-0.12324636 0.072220124 0.33858553
-0.006108541 0.14302357 0.34198931
-0.0044811517 0.14397971 0.34186682
-0.0024482757 0.14514944 0.34112221
-0.00044865534 0.14629221 0.34049919
-0.12805416 0.072138272 0.33667046
-0.12609656 0.073406026 0.33792531
-0.12435366 0.074568912 0.33864164
-0.0069848821 0.14471185 0.34202883
-0.0058418214 0.14612029 0.34161857
-0.0037006997 0.14742944 0.34080029
-0.0021512061 0.14830199 0.3402712
-0.12913013 0.074635155 0.33658838
-0.12740372 0.075708024 0.33784524
-0.12552133 0.076801926 0.33869374
-0.0089035816 0.14824259 0.3421104
-0.0072925575 0.14839768 0.34149161
-0.0051711537 0.14960107 0.34038216
-0.0038104057 0.15057369 0.3402355
-0.13025858 0.076948307 0.33664328
-0.12866299 0.077915214 0.33733881
-0.12680569 0.079361066 0.33852673
-0.01000341 0.1497594 0.34214234
-0.008622203 0.15051147 0.34105575
-0.0064218156 0.15174225 0.34024003
-0.0047686324 0.15247191 0.34028021
-0.13089629 0.078854673 0.33669192
-0.12983498 0.08010561 0.33709693
-0.12791497 0.081429832 0.3383019
-0.12682588 0.082424268 0.33884364
-0.010841936 0.15132509 0.34217861
-0.0097019523 0.1528085 0.34148195
-0.0085118897 0.1535652 0.34026968
-0.13112137 0.082498468 0.33679599
-0.12921402 0.083600685 0.3377189
-0.12753226 0.084950805 0.33860505
-0.0155509 0.15361738 0.34219223
-0.01530331 0.15400949 0.34220654
-0.011136245 0.15413493 0.34225759
-0.1325561 0.084790133 0.3368468
-0.13057533 0.085881166 0.33762673
-0.12843856 0.087116063 0.33820856
-0.13865829 0.084191844 0.33855739
-0.13626599 0.085624844 0.33727381
-0.13409089 0.086767927 0.33728141
-0.13187419 0.088211387 0.33741215
-0.12979777 0.089539729 0.3380501
-0.12793778 0.090892509 0.338866
-0.13875282 0.085785694 0.33780608
-0.13724577 0.087000467 0.3378588
-0.13525034 0.088763691 0.33779511
-0.13308825 0.090232708 0.33717263
-0.13094711 0.091555968 0.33811551
-0.12879589 0.092970043 0.33857134
-0.12770392 0.094120719 0.33917615
-0.13432506 0.091361202 0.33701912
-0.13203004 0.09428452 0.33913168
-0.13005535 0.095303759 0.33918393
-0.12870824 0.096131295 0.33922359
-0.1330608 0.09632542 0.33917975
-0.13142337 0.097478457 0.33923206
-0.12974873 0.098885134 0.33929232
-0.027500628 0.16154385 0.34228855
-0.13336596 0.097903945 0.33922255
-0.13256784 0.09958975 0.33928087
-0.13054079 0.10078295 0.33933884
-0.12926376 0.10226274 0.33939674
-0.028410427 0.16263561 0.34223863
-0.13825588 0.10038432 0.33723864
-0.13724101 0.10099082 0.33726791
-0.13128221 0.10418043 0.33742902
-0.12985572 0.10474667 0.33879572
-0.12887871 0.10631359 0.33951977
-0.029181266 0.16580372 0.34075701
-0.028358793 0.16658536 0.3404254
-0.13869651 0.10163287 0.3372702
-0.13798128 0.10240483 0.3373009
-0.13208044 0.10567778 0.3374638
-0.13094896 0.10685609 0.33803844
-0.12931652 0.10809403 0.33941677
-0.037106454 0.16404521 0.34225267
-0.035672814 0.16495958 0.34224799
-0.033485606 0.16643193 0.34173289
-0.031070763 0.16749604 0.34065577
-0.029154969 0.16778395 0.34045145
-0.13204996 0.10913516 0.33784491
-0.13023576 0.11047281 0.33908841
-0.12845668 0.1120259 0.33969173
-0.12684631 0.11345877 0.33975208
-0.038818449 0.16594058 0.34219179
-0.036722224 0.16682348 0.34165674
-0.034348059 0.16841212 0.3411079
-0.032623589 0.16887273 0.34048393
-0.1327347 0.11104202 0.3376134
-0.13123018 0.11247932 0.33807278
-0.12944618 0.11393144 0.33882546
-0.12731783 0.11532351 0.33958986
-0.12601042 0.11674002 0.33985764
-0.042430609 0.16718368 0.34228408
-0.040431958 0.16776884 0.34172145
-0.038156368 0.16909719 0.34088209
-0.03582833 0.17003971 0.34056902
-0.033990696 0.17038019 0.34047258
-0.13162312 0.11473794 0.33773425
-0.13049804 0.11618218 0.33793435
-0.12849356 0.11760008 0.33893284
-0.12652098 0.1191639 0.33987004
-0.12505107 0.12058686 0.33998117
-0.050221801 0.16591564 0.34215844
-0.048765644 0.16623752 0.34218431
-0.046243921 0.16813159 0.34223717
-0.043951049 0.16874143 0.34172451
-0.041692343 0.16997235 0.34087336
-0.039522469 0.17072296 0.34041971
-0.13089687 0.11811864 0.33784151
-0.12935832 0.11985149 0.33818644
-0.12763201 0.12109859 0.33893773
-0.12546836 0.12263447 0.33984476
-0.12398243 0.12421262 0.34009942
-0.051684532 0.16726664 0.3421813
-0.049755663 0.16827011 0.34223253
-0.047484234 0.16963869 0.3418496
-0.045376938 0.17089549 0.34088185
-0.043459628 0.17183723 0.34040761
-0.12958686 0.1217048 0.33796138
-0.12857105 0.12335861 0.33805767
-0.12680803 0.12466915 0.33864421
-0.12457643 0.12594801 0.33984065
-0.12297221 0.12772757 0.34021387
-0.12163423 0.12899579 0.34026617
-0.055294145 0.16855791 0.3421782
-0.053355534 0.16920754 0.34175599
-0.050988689 0.17042109 0.34138128
-0.048850317 0.17173404 0.34077069
-0.046549827 0.17261398 0.34041801
-0.044762481 0.17310749 0.34043005
-0.12890445 0.12523726 0.33807257
-0.12758718 0.12668084 0.33823791
-0.12579241 0.12822795 0.33909601
-0.12365974 0.12958963 0.33955139
-0.12160595 0.13107021 0.34008703
-0.12007715 0.13273251 0.3403933
-0.066387415 0.16452238 0.34122306
-0.059224069 0.16964579 0.34202245
-0.056869257 0.17005511 0.34173197
-0.054630648 0.17132595 0.34098187
-0.052482244 0.17234758 0.34053555
-0.050365373 0.17308 0.34036556
-0.12627093 0.13028529 0.33825025
-0.12470184 0.13159102 0.33847004
-0.12269345 0.13314696 0.33907026
-0.12050098 0.13462178 0.34009632
-0.11872691 0.13617951 0.34048504
-0.11712128 0.13766338 0.34057125
-0.067068614 0.16660216 0.34157521
-0.065777972 0.16870426 0.34206337
-0.062724553 0.17011884 0.34178206
-0.060465198 0.17081875 0.34118512
-0.058084916 0.17211045 0.34054235
-0.055884589 0.1728363 0.34033021
-0.054133393 0.17332187 0.34032986
-0.12473492 0.13351786 0.33836237
-0.12350225 0.13512927 0.33852991
-0.12182505 0.13676253 0.33900321
-0.11968722 0.13808031 0.33944011
-0.11750785 0.13949797 0.34009278
-0.11532185 0.14103988 0.34042266
-0.11355148 0.1424368 0.34071815
-0.11194997 0.14394122 0.34081379
-0.10847308 0.14584126 0.34090891
-0.10782298 0.1464363 0.34093371
-0.091181889 0.15649709 0.34141734
-0.07800214 0.16446522 0.34180036
-0.07241074 0.16784567 0.34196284
-0.070693307 0.16852897 0.34191144
-0.068549156 0.16933207 0.34173837
-0.066272348 0.17038018 0.34116697
-0.063934416 0.17153186 0.34052181
-0.061565336 0.17253137 0.34026483
-0.059473816 0.1732223 0.34026626
-0.12214918 0.13842386 0.3385354
-0.12040302 0.1398942 0.33859822
-0.11847609 0.1415368 0.33885166
-0.11654477 0.1430556 0.33930832
-0.11432423 0.14426371 0.33999589
-0.11211357 0.14575046 0.34078142
-0.10980232 0.14719984 0.34093347
-0.10792872 0.14859907 0.34094399
-0.10545532 0.14993207 0.34104836
-0.10360646 0.15136173 0.34112573
-0.10144593 0.15316908 0.34120327
-0.099324599 0.15384687 0.34124714
-0.093935266 0.15774146 0.3414225
-0.092128828 0.15789858 0.3414475
-0.090464003 0.15948819 0.34151301
-0.089303754 0.16090518 0.34156772
-0.085523814 0.16275756 0.34166494
-0.083495386 0.16374847 0.34171689
-0.081039943 0.1650722 0.34170941
-0.078850284 0.1660834 0.34168521
-0.077052347 0.16749689 0.34118524
-0.074248664 0.16894411 0.34072745
-0.071959049 0.16981073 0.34086835
-0.069728538 0.17115872 0.34056026
-0.067570046 0.17238697 0.34016767
-0.065683506 0.17303872 0.34019032
-0.11681703 0.144656 0.33877841
-0.11516231 0.14628254 0.33894292
-0.11324151 0.14778076 0.33962107
-0.11128151 0.1493275 0.33989066
-0.10904867 0.15075094 0.33993316
-0.10675664 0.15191878 0.34022138
-0.10454939 0.15333351 0.34071928
-0.10238253 0.15463111 0.34086901
-0.10034034 0.15608102 0.34115806
-0.098272458 0.15787174 0.3413181
-0.09577249 0.15887946 0.34143487
-0.093472332 0.16004285 0.3414509
-0.091229282 0.16141796 0.34138682
-0.089026764 0.1627018 0.34119657
-0.086695701 0.1639955 0.34110188
-0.084547758 0.16550496 0.34086192
-0.082175136 0.16690943 0.34065941
-0.080068618 0.16823027 0.34054509
-0.077855349 0.16937388 0.34029788
-0.075580306 0.17032976 0.3400161
-0.07325644 0.17100944 0.34004489
-0.11333004 0.14977261 0.33896786
-0.11196287 0.15092786 0.33901715
-0.10993953 0.15249565 0.33913487
-0.10783458 0.15391234 0.33929861
-0.10573383 0.15533277 0.3394742
-0.1034997 0.15668568 0.33957845
-0.10130753 0.15808846 0.33968145
-0.099114507 0.15941542 0.34008986
-0.097177111 0.16086139 0.33984238
-0.09454231 0.1621574 0.34008968
-0.092480302 0.16352347 0.33992895
-0.09027902 0.16487634 0.34022355
-0.088013239 0.16613182 0.3401852
-0.085788332 0.16714893 0.33989587
-0.083259702 0.16823056 0.33984986
-0.080989502 0.16946335 0.33991176
-0.079062708 0.17048979 0.33996373
-0.10162257 0.1598334 0.33939543
-0.10005637 0.16085747 0.33944318
-0.097815804 0.16221204 0.3395083
-0.095355578 0.16369942 0.33957982
-0.093425669 0.16479698 0.33963385
-0.09101437 0.16614401 0.3397007
-0.089301005 0.16717987 0.3397505
-0.032690037 0.036994211 0.33958346
-0.031142518 0.037480049 0.33961529
-0.029171996 0.038609512 0.33967078
-0.027042545 0.040043112 0.33973691
-0.024974275 0.041241348 0.33979544
-0.022571351 0.042801112 0.33986843
-0.02028814 0.044392426 0.33994094
-0.018159289 0.045596432 0.34000036
-0.016233332 0.04694353 0.34006169
-0.013825029 0.04839953 0.34013167
-0.012353297 0.049289301 0.34017447
-0.043083459 0.033634141 0.339367
-0.041073669 0.034079887 0.33940297
-0.039063767 0.035052344 0.33945429
-0.036880497 0.036523469 0.33952215
-0.034573719 0.03773912 0.33973113
-0.032240607 0.03893758 0.34011054
-0.030163854 0.040326331 0.33992326
-0.02798222 0.041633282 0.33988404
-0.025697935 0.042906281 0.34013879
-0.023441654 0.044238918 0.34045649
-0.021279115 0.045619193 0.34066036
-0.018927764 0.046963416 0.34046781
-0.016764812 0.048398517 0.34034172
-0.014601558 0.049680699 0.34035778
-0.012511596 0.051140103 0.3403914
-0.010548342 0.052755889 0.34029654
-0.0086771883 0.054354109 0.34036452
-0.049370844 0.032567859 0.33926442
-0.047250301 0.033516452 0.33931631
-0.044743583 0.034473278 0.33943442
-0.042624362 0.035900496 0.339847
-0.040322863 0.036895961 0.34032515
-0.038074892 0.038263537 0.34037229
-0.035840034 0.03968142 0.34059641
-0.033678845 0.041028719 0.34069073
-0.031376678 0.042012069 0.34074575
-0.02885999 0.043401998 0.34081507
-0.026704479 0.044779096 0.34087989
-0.024549309 0.04615701 0.34094468
-0.022534784 0.047675699 0.34101194
-0.020070106 0.048888952 0.34107554
-0.017970391 0.050368749 0.34114268
-0.015890311 0.051920943 0.34121177
-0.013620932 0.053136822 0.34125936
-0.011291098 0.054448109 0.34102207
-0.0093021244 0.055917315 0.34052336
-0.0071927644 0.057342693 0.34046903
-0.005028028 0.059426416 0.34055457
-0.003143128 0.060620259 0.34061089
-0.0013780445 0.061954454 0.34066999
-0.057103883 0.031167217 0.33913547
-0.055233046 0.031864397 0.33917725
-0.052932821 0.03291411 0.33944112
-0.050651211 0.033956341 0.33991396
-0.048380081 0.035324581 0.34025535
-0.046086613 0.036673814 0.34040815
-0.043982934 0.037985086 0.34026226
-0.041599855 0.038702384 0.34053275
-0.039513007 0.040457703 0.3406077
-0.037044503 0.041949768 0.34067947
-0.035087265 0.042850055 0.34072816
-0.01787255 0.052237466 0.34119859
-0.016499635 0.053237002 0.34124342
-0.014461759 0.054637417 0.34130758
-0.012266643 0.056310166 0.34138155
-0.010373008 0.057733551 0.34140542
-0.0081327148 0.059441749 0.34150574
-0.0060251206 0.060873952 0.34145078
-0.0040067323 0.062209427 0.34085608
-0.0017174222 0.063626781 0.34071523
-2.039969e-05 0.065277718 0.3407827
0.0018408746 0.066902354 0.3408514
-0.062651739 0.030939683 0.33906579
-0.060964502 0.031346753 0.33909696
-0.058585975 0.032168999 0.3391481
-0.056352977 0.033543855 0.33961657
-0.054212499 0.034680575 0.34020597
-0.051906928 0.03574577 0.34032911
-0.049280245 0.036764346 0.34038872
-0.047483124 0.038869198 0.3404707
-0.045439228 0.039386764 0.34050912
-0.040581815 0.041813351 0.34063539
-0.037623696 0.043601755 0.34072134
-0.0070081875 0.063136034 0.34164113
-0.0052562207 0.064372987 0.34134978
-0.0029891208 0.065687746 0.34137663
-0.00081188604 0.067222983 0.34127393
0.0013831705 0.068453744 0.34089178
0.0032042228 0.070120417 0.34096122
0.0046437867 0.07141605 0.3410154
-0.066744484 0.031662934 0.33904046
-0.064320453 0.031992957 0.3390778
-0.062242188 0.032983162 0.33925545
-0.059881169 0.034243688 0.33997214
-0.05769496 0.035360113 0.34025201
-0.055796709 0.035797715 0.3402864
-0.048602775 0.040169246 0.34049609
-0.0071929805 0.064937472 0.34169173
-0.0059002452 0.066004679 0.34173763
-0.0039761737 0.067564309 0.34180522
-0.0020926148 0.069287419 0.34186321
0.00016698986 0.07058686 0.34147307
0.0021929331 0.071997508 0.3410714
0.0043389313 0.07343249 0.34107113
0.005339589 0.075212695 0.34113449
-0.070128545 0.032423086 0.33902428
-0.068005145 0.032739602 0.33915642
-0.065799214 0.034021422 0.33967608
-0.063481554 0.034909874 0.34009755
-0.061199833 0.035889402 0.34022772
-0.059320714 0.036360428 0.34026283
-0.0031834655 0.07164415 0.34193358
-0.00097986311 0.072759867 0.34199128
0.00093281642 0.074280687 0.34178817
0.0030392148 0.075741224 0.3412703
0.0051935352 0.077087209 0.34118783
0.0063280575 0.078612022 0.34124523
-0.073184028 0.033123456 0.33901006
-0.071585074 0.03351856 0.33912197
-0.069460317 0.034610361 0.33982086
-0.067158192 0.035270207 0.34014183
-0.0044087768 0.0731498 0.34196383
2.4143606e-05 0.076542355 0.34211355
0.0017563216 0.077833802 0.34214059
0.0040091611 0.079174384 0.34178737
0.006050799 0.080501691 0.34129754
0.0074496605 0.082274556 0.34136522
-0.077326797 0.034050144 0.33899012
-0.075131752 0.034526058 0.33902913
-0.072994642 0.03556028 0.33971244
-0.071290478 0.036322102 0.34012568
-0.00036999956 0.078243971 0.34215885
0.0010312162 0.079131916 0.34220079
0.0033280887 0.081136554 0.34225699
0.0049130805 0.082690984 0.34172383
0.0071262456 0.084107205 0.34141532
0.0086970143 0.085769475 0.34148178
-0.080500796 0.034635738 0.33897129
-0.078650996 0.035327524 0.33905953
-0.07648214 0.036529623 0.33968195
-0.07428278 0.037169538 0.34011656
-0.072532266 0.037554547 0.3401477
0.0041147992 0.084916145 0.34228885
0.0058655031 0.086372003 0.34192899
0.0080458783 0.08775118 0.34153247
0.0093743317 0.089050293 0.34158546
-0.084316306 0.035634264 0.3389571
-0.082198359 0.036217555 0.33908176
-0.080005437 0.03748963 0.33981073
-0.07793095 0.038141899 0.3401036
0.0025215559 0.087694086 0.34246841
0.0045702346 0.088470787 0.34244758
0.006672319 0.089968577 0.34213611
0.0086959936 0.091214485 0.34170794
0.0095286109 0.092850186 0.34169847
-0.087563559 0.037074223 0.33896241
-0.085838035 0.037103131 0.33905876
-0.083644703 0.038277388 0.33981165
-0.081557795 0.039301872 0.34009635
0.0040902868 0.090902455 0.34258014
0.0053689666 0.092261292 0.34263441
0.007639993 0.093434103 0.3422865
0.009478908 0.094946347 0.34183407
0.010716151 0.096564762 0.34182072
-0.088546857 0.038631797 0.3389968
-0.087250888 0.039207753 0.33946618
-0.084970072 0.040010758 0.34007832
-0.083135992 0.040508922 0.34011376
0.0032687038 0.092563398 0.34261945
0.0043483339 0.094244443 0.34268087
0.00632957 0.095699333 0.34274593
0.0084189512 0.097067699 0.34210953
0.010149788 0.09841501 0.34186855
-0.092527449 0.040042061 0.33899286
-0.090654254 0.04034628 0.33921936
-0.089176722 0.041195083 0.33973169
-0.086776756 0.041062247 0.34008858
0.0041380748 0.096467786 0.34274364
0.0050738417 0.097842678 0.34279445
0.0072453581 0.099199727 0.34246913
0.0093280934 0.10063194 0.34196895
0.010843296 0.1020361 0.34198239
-0.096060999 0.040646575 0.33897042
-0.094195552 0.04112298 0.33900571
-0.092083864 0.042290043 0.33982792
-0.090238415 0.043243691 0.3401131
0.0043101273 0.10014869 0.3428534
0.0057958774 0.10143645 0.34290782
0.007969249 0.10282589 0.34268916
0.010252107 0.10408702 0.3420358
0.011914756 0.10426412 0.34205976
-0.097250707 0.042346969 0.33900672
-0.095645964 0.043119248 0.33935642
-0.093523055 0.044423785 0.3401103
-0.091522306 0.044722266 0.34014183
0.0037720688 0.10204921 0.3429029
0.0049418248 0.10328106 0.34295225
0.0067419745 0.10498219 0.34295991
0.0087295733 0.10628402 0.34232709
0.0098921396 0.1079008 0.34214324
-0.098978408 0.044444542 0.33904859
-0.097049236 0.045339026 0.33987471
-0.095269926 0.04631405 0.34014589
0.0056655444 0.10741744 0.34308162
0.0075647496 0.10858856 0.34288725
0.0095909648 0.10998242 0.34220093
-0.10218763 0.046139505 0.33906168
-0.10046668 0.046372958 0.33926216
-0.098330483 0.047612645 0.34012157
-0.096634604 0.048013028 0.34018007
0.0042231195 0.1096521 0.34313059
0.0061996393 0.11083304 0.3431634
0.0082672276 0.11212175 0.34241959
0.009378124 0.113833 0.34231111
-0.10356298 0.047834314 0.33909568
-0.10202196 0.048542336 0.33949262
-0.099870861 0.049244091 0.34017935
0.0037187412 0.1114433 0.34317735
0.0050324164 0.11311312 0.34324107
0.0071007647 0.11443789 0.34260198
0.0086711161 0.11563749 0.342356
-0.10541715 0.049609914 0.33912671
-0.10344934 0.050534889 0.33972177
0.0041411854 0.11561252 0.34330422
0.0058805905 0.1167152 0.3430483
0.0076907165 0.11803395 0.34245673
-0.10654707 0.051708408 0.33917531
-0.10508539 0.052549303 0.34019253
0.0031370744 0.11751255 0.34334838
0.0045093708 0.11880571 0.34337145
0.006568525 0.12011138 0.34269291
0.007408496 0.12171733 0.34251958
-0.10984552 0.053217914 0.33918196
-0.10820203 0.053723775 0.33939299
-0.10631286 0.054357067 0.34025589
0.0016450696 0.12053408 0.34341991
0.0030804686 0.12109584 0.34345257
0.0052063279 0.12239049 0.34287003
0.0067702122 0.12347998 0.34256399
-0.11122259 0.055162881 0.3392233
-0.1095604 0.056116559 0.33962962
-0.10778642 0.057427097 0.34028733
0.0019854456 0.12339437 0.34350753
0.0038807169 0.12470133 0.34304208
0.0055752136 0.12583682 0.34261945
-0.11287922 0.057196137 0.33926404
-0.11085996 0.058261998 0.33967763
-0.10887748 0.059297893 0.3402341
0.00088570267 0.12571457 0.34356302
0.002648551 0.12688893 0.34324217
0.0045151226 0.12800777 0.34267098
-0.11556156 0.057970513 0.33925614
-0.11451608 0.059104186 0.3396219
-0.11223935 0.06037423 0.34036463
-0.11066134 0.061239839 0.340408
-0.00061880052 0.12798837 0.34361249
0.0013018437 0.12911931 0.34321365
0.0031236447 0.13014334 0.34271771
-0.11766659 0.061448604 0.33933404
-0.11584474 0.061408244 0.33979377
-0.11365397 0.062586665 0.34041333
-0.11177054 0.062677577 0.3404375
-0.0019676574 0.13007867 0.34365833
-0.00012391433 0.13136533 0.34332386
0.0015174411 0.13248627 0.34276804
-0.11846313 0.062545083 0.33935708
-0.11719215 0.063584022 0.33976325
-0.11505187 0.064952791 0.34046677
-0.11428382 0.066483378 0.34052038
-0.0029993095 0.13261001 0.34372073
-0.0013906397 0.1336138 0.34344321
0.00066769496 0.13487467 0.34282836
0.0016148612 0.13612127 0.34287548
-0.11830682 0.066070423 0.33949557
-0.11634058 0.067134678 0.3403219
-0.11517952 0.068145417 0.34055886
-0.0047268309 0.13478462 0.34376484
-0.0027501024 0.13575399 0.34332758
-0.00067709014 0.13701685 0.34287581
0.00096715987 0.13719144 0.34289947
-0.12130992 0.067468375 0.3394689
-0.11989102 0.068143472 0.33950493
-0.1175955 0.069270216 0.34041166
-0.11597125 0.069392875 0.34058639
-0.0060516149 0.13655803 0.34380162
-0.0040319748 0.13792242 0.34376583
-0.0025180392 0.13911951 0.34308317
-0.12203857 0.068672329 0.33949587
-0.12115888 0.070279963 0.3396531
-0.11912713 0.071451321 0.34061071
-0.0069474839 0.13936412 0.34387359
-0.0054347999 0.14017873 0.34352806
-0.003658805 0.14074239 0.34299853
-0.12199837 0.072579496 0.33965528
-0.12045448 0.073815301 0.34063151
-0.1197353 0.075490735 0.34072217
-0.010822695 0.14133658 0.34388739
-0.0089071617 0.14146833 0.343822
-0.0069464967 0.14221936 0.34317753
-0.12318738 0.074988492 0.33966786
-0.12169243 0.076027825 0.34033865
-0.11998388 0.07727091 0.3407715
-0.011698816 0.14242715 0.34390932
-0.010242756 0.14333731 0.34349445
-0.0081906877 0.14464949 0.34301391
-0.0073407851 0.14623818 0.34306994
-0.12443179 0.077457808 0.33972594
-0.12302285 0.078336075 0.34018457
-0.12132658 0.079158098 0.34081149
-0.013146121 0.14498876 0.34396788
-0.011690993 0.14556023 0.34396049
-0.0096623302 0.14692561 0.34329766
-0.0081019327 0.14757709 0.34310049
-0.12564377 0.079434104 0.33977002
-0.12430149 0.080501102 0.34006667
-0.12265809 0.081393763 0.3408618
-0.01477354 0.1470408 0.34400952
-0.013087917 0.14784552 0.34360459
-0.010820623 0.14901511 0.34318542
-0.0090269335 0.14887318 0.34312794
-0.12626924 0.08109767 0.33981162
-0.12563156 0.082718946 0.34007239
-0.12402163 0.08365187 0.34091246
-0.018450368 0.14847738 0.34400979
-0.016633783 0.14876652 0.34403878
-0.014522128 0.14993995 0.34320927
-0.012180563 0.15133643 0.34316438
-0.011054937 0.15278766 0.34321949
-0.12641171 0.085017145 0.34009632
-0.12509502 0.086272329 0.34084123
-0.12351792 0.088156573 0.34105003
-0.019485299 0.15002185 0.34404325
-0.017968342 0.15079796 0.34404308
-0.015929412 0.15206006 0.34321547
-0.013285279 0.15330766 0.34320951
-0.011801764 0.15430343 0.3432554
-0.12698863 0.086966611 0.33997527
-0.12598227 0.088409007 0.34031487
-0.12399065 0.089881338 0.34093285
-0.12297475 0.0911607 0.34114414
-0.021334987 0.15205866 0.34408191
-0.019383986 0.15305455 0.34413305
-0.017159831 0.15440637 0.34376723
-0.015077043 0.15558261 0.34345582
-0.12677306 0.090653233 0.34008572
-0.12536344 0.092114069 0.34063184
-0.12404157 0.093270175 0.3411938
-0.02265735 0.15423024 0.34413046
-0.020767204 0.15534002 0.34418428
-0.018486444 0.15665567 0.34424874
-0.016621642 0.15769246 0.34430042
-0.12643082 0.094418995 0.34030604
-0.12465505 0.095676892 0.34101158
-0.1236181 0.097382434 0.34131902
-0.026479643 0.15530396 0.34411848
-0.024338141 0.15625206 0.34370685
-0.022101708 0.15746832 0.34357411
-0.02028957 0.15861385 0.34366548
-0.12758228 0.096730776 0.34025455
-0.12566651 0.097873934 0.34063295
-0.12412567 0.098865941 0.34135669
-0.033083748 0.1550553 0.34403613
-0.029870898 0.15648355 0.34411439
-0.027818197 0.15705018 0.34406728
-0.025694206 0.15826172 0.34400415
-0.023664702 0.15954116 0.34394097
-0.12869358 0.098683938 0.34029907
-0.12700532 0.10016869 0.34041581
-0.12520845 0.10152922 0.34116361
-0.12436762 0.1031727 0.34148005
-0.033494029 0.15664355 0.34407786
-0.031319417 0.15802757 0.34405333
-0.029290797 0.15921111 0.34333852
-0.026892718 0.16076411 0.34345514
-0.02482263 0.16111383 0.34416938
-0.12810859 0.10246789 0.34041652
-0.12648289 0.1036944 0.34081104
-0.12468067 0.10537062 0.34154081
-0.036956929 0.15842032 0.34409064
-0.034989223 0.15892963 0.3441
-0.032834977 0.16021034 0.34365118
-0.030611085 0.16158752 0.34325513
-0.028989879 0.16236468 0.34329614
-0.12858939 0.10452467 0.34047115
-0.12755792 0.10588367 0.34093198
-0.12532608 0.107184 0.34158647
-0.12375116 0.1083932 0.34163988
-0.040356442 0.15954609 0.34408498
-0.038529962 0.15992177 0.34395793
-0.036366493 0.16092122 0.34353182
-0.034180935 0.16235286 0.34323698
-0.031906046 0.16371016 0.34330258
-0.030811399 0.16493814 0.34335083
-0.12823737 0.10811704 0.34061074
-0.12667358 0.10948937 0.34106079
-0.12447466 0.11089346 0.34156182
-0.12233508 0.11217251 0.34176651
-0.12123527 0.11357461 0.34182015
-0.044129461 0.16086416 0.34408075
-0.042009778 0.16106801 0.34405187
-0.039989613 0.16191936 0.34347019
-0.037754506 0.16319013 0.34322089
-0.034991816 0.1640161 0.34327638
-0.033251818 0.16513872 0.34332904
-0.12881887 0.11007059 0.34063095
-0.1275256 0.11143287 0.34068561
-0.12558568 0.11312439 0.34084058
-0.12368211 0.11447985 0.34150881
-0.12170379 0.11578735 0.34187958
-0.12032942 0.11746655 0.3419444
-0.047948919 0.16115643 0.34404588
-0.045809519 0.16186565 0.34398147
-0.043611087 0.1628311 0.34354135
-0.041348919 0.16423172 0.34321058
-0.039375931 0.16510484 0.34325847
-0.1259533 0.11513261 0.3408117
-0.12478526 0.11659599 0.34091881
-0.12285306 0.11790596 0.34178144
-0.12093931 0.11917125 0.34198737
-0.05124113 0.16219592 0.34403893
-0.049239159 0.16245013 0.34370637
-0.047082517 0.16361758 0.34318629
-0.044918798 0.16499706 0.3431924
-0.042708531 0.16618595 0.34325233
-0.040901549 0.16651216 0.34328228
-0.12521225 0.11855492 0.3409203
-0.1239526 0.11982257 0.34117195
-0.12172042 0.12152725 0.34183601
-0.11969406 0.12299708 0.34211352
-0.1183199 0.12433503 0.3421683
-0.054973315 0.16257159 0.34400749
-0.052897822 0.1633544 0.34388462
-0.05067474 0.16443884 0.34340343
-0.048049647 0.16532835 0.34316647
-0.046160027 0.16699398 0.34323677
-0.04433766 0.16735831 0.34326801
-0.12435402 0.12211913 0.34103441
-0.12293634 0.12357824 0.34109339
-0.12091 0.12503521 0.34152535
-0.11888084 0.12643059 0.34209991
-0.11713506 0.1281748 0.34229428
-0.11551945 0.12982312 0.34236085
-0.063283235 0.16087335 0.3438634
-0.061032046 0.16164339 0.34391144
-0.059202995 0.16264644 0.34396163
-0.056311224 0.16412586 0.34359604
-0.054283038 0.16532598 0.34312269
-0.052244917 0.16643679 0.34315133
-0.12300463 0.12582801 0.34115836
-0.12206937 0.12727898 0.34121159
-0.12010227 0.12865643 0.3414655
-0.11792736 0.13010086 0.34217685
-0.11572412 0.13151601 0.342408
-0.1141009 0.13306794 0.34247193
-0.068713732 0.16085473 0.34380117
-0.066616938 0.1613394 0.34383914
-0.064541757 0.16235805 0.3437067
-0.062301308 0.16340294 0.34394857
-0.060047459 0.16501278 0.34402132
-0.05772312 0.16645816 0.34369853
-0.055687636 0.1675154 0.34314379
-0.053737853 0.16803387 0.34318098
-0.12064797 0.13031337 0.34131643
-0.11893059 0.13212931 0.3414205
-0.11684395 0.13347879 0.34167477
-0.11474149 0.13486806 0.34203109
-0.11281806 0.13642953 0.34247375
-0.11059479 0.1378579 0.34265202
-0.10867858 0.1395065 0.34272203
-0.10736635 0.14062843 0.34276983
-0.076511338 0.15903777 0.34365937
-0.074891761 0.15959865 0.34369424
-0.07257989 0.16075726 0.34375438
-0.070232347 0.16172096 0.34380916
-0.067785695 0.16275485 0.34381971
-0.065935239 0.16337094 0.34310597
-0.059785429 0.16700748 0.34408274
-0.058819257 0.16834947 0.34336802
-0.057327624 0.16896339 0.34316742
-0.11917332 0.13399139 0.34144089
-0.11783759 0.13539276 0.34149718
-0.11601686 0.13705692 0.34156662
-0.11380972 0.13846265 0.34166861
-0.11158585 0.13981888 0.34231645
-0.10930877 0.14110675 0.34276167
-0.10747261 0.14277565 0.34256464
-0.10560747 0.14400622 0.34282622
-0.10324664 0.14602047 0.34297451
-0.10181073 0.1469253 0.34301731
-0.098475792 0.14884971 0.34311154
-0.097508013 0.14952661 0.34314236
-0.087336153 0.15532738 0.34342772
-0.086347833 0.15627378 0.3434667
-0.077667251 0.16017523 0.34367958
-0.075974435 0.16112135 0.3437264
-0.073744088 0.16255106 0.3437936
-0.072192982 0.16315582 0.34382898
-0.06919229 0.16616356 0.34395111
-0.064838834 0.16891715 0.34333092
-0.062896699 0.16943373 0.3435849
-0.060480542 0.16951212 0.34314767
-0.11613446 0.13893485 0.34162015
-0.11474369 0.13995841 0.34166589
-0.1125087 0.14187971 0.34185189
-0.11067592 0.14323455 0.34200823
-0.10854489 0.14462845 0.34192955
-0.1062403 0.14611217 0.3423596
-0.10410663 0.14712104 0.34245616
-0.10192328 0.14777158 0.34298518
-0.099179871 0.14949915 0.34312257
-0.097436853 0.15150654 0.34311777
-0.092115134 0.15609235 0.34339586
-0.08785516 0.15572974 0.34343365
-0.086510569 0.15654266 0.34347272
-0.079032615 0.16249399 0.34364492
-0.077735983 0.16342407 0.34345299
-0.074760497 0.16435564 0.34383497
-0.071833044 0.16688535 0.34394228
-0.070533514 0.16740818 0.34369799
-0.069390826 0.16829121 0.34301069
-0.1111435 0.14539787 0.34186608
-0.11018339 0.14599368 0.34189442
-0.10696892 0.14787167 0.34198597
-0.10539981 0.14877141 0.34203008
-0.10264231 0.1512762 0.34213477
-0.10107914 0.15278769 0.34219682
-0.097912468 0.15391357 0.3422657
-0.096775241 0.15564781 0.34297493
-0.094331071 0.15670675 0.34296474
-0.092571892 0.15679042 0.34268349
-0.084886804 0.16235226 0.34266075
-0.083604597 0.16285226 0.34268996
-0.080199555 0.16407757 0.34309801
-0.078772672 0.16456819 0.3427951
-0.098929122 0.15583351 0.34231037
-0.097646162 0.15684555 0.34250861
-0.095679447 0.15790997 0.34245583
-0.09256126 0.16067816 0.34252456
-0.09229368 0.16083995 0.34253234
-0.031520694 0.043160062 0.34177828
-0.029617436 0.044177461 0.34182969
-0.027393159 0.045737486 0.34190065
-0.025316965 0.046976291 0.34196049
-0.022844967 0.048837636 0.34204307
-0.020748273 0.049836829 0.34209615
-0.018796846 0.051119123 0.34215587
-0.041784525 0.039747111 0.34156176
-0.041002579 0.040913276 0.34160474
-0.038053028 0.041681536 0.34166074
-0.034121953 0.043834075 0.34176847
-0.032760501 0.04467361 0.34191155
-0.03056605 0.045931179 0.34187028
-0.028605327 0.046607237 0.34191233
-0.025789078 0.048642404 0.34230924
-0.023809746 0.050015867 0.34206662
-0.021647766 0.051322959 0.34212947
-0.019485746 0.052630063 0.34219229
-0.017285321 0.054051273 0.3422589
-0.015059106 0.055623684 0.34233022
-0.013077941 0.057048175 0.34239444
-0.010966569 0.058736756 0.34246787
-0.0092699639 0.059842505 0.34251952
-0.054123692 0.036033861 0.34131286
-0.052243207 0.036879621 0.34135899
-0.049868427 0.037634544 0.34140807
-0.048821852 0.03858494 0.34144774
-0.043761913 0.039983205 0.34154618
-0.042572029 0.04122293 0.34164867
-0.041169561 0.042809263 0.34232542
-0.038995456 0.044939093 0.3427459
-0.037168048 0.045873906 0.34279403
-0.033350267 0.046875484 0.34229505
-0.031397566 0.047761101 0.34204489
-0.029707218 0.049587779 0.34282362
-0.02730252 0.050925143 0.34291977
-0.025204387 0.052193709 0.34255323
-0.023033138 0.053448308 0.34258798
-0.020830274 0.05487087 0.34266955
-0.018626995 0.056437682 0.34232804
-0.016281478 0.057704393 0.34237725
-0.014119487 0.059011474 0.3424401
-0.0119575 0.060318593 0.34250292
-0.0097954683 0.061625682 0.34256575
-0.0080743544 0.06305138 0.34262705
-0.057583909 0.036524147 0.34128791
-0.055545367 0.037211783 0.34133118
-0.053349569 0.038294807 0.34147412
-0.050924689 0.039455816 0.34189862
-0.049452789 0.040929116 0.34171987
-0.046884507 0.042867407 0.34259564
-0.045039155 0.044360571 0.34266031
-0.042047895 0.045025688 0.34293979
-0.039972927 0.046316735 0.3433097
-0.037916027 0.047763795 0.34341693
-0.035535239 0.049166031 0.34317788
-0.033275552 0.050499007 0.34321079
-0.030952759 0.051763397 0.34303725
-0.028739857 0.053055655 0.34310025
-0.026567183 0.054369204 0.34316337
-0.024394508 0.055682734 0.34322652
-0.022201683 0.056998178 0.34327456
-0.019993354 0.058471054 0.34276569
-0.01765414 0.059888069 0.34310395
-0.015410125 0.061098501 0.34347177
-0.013251245 0.0624483 0.34335414
-0.011166923 0.063859358 0.34302497
-0.0088455789 0.065264538 0.34297499
-0.0067572221 0.06677559 0.3428373
-0.0047436059 0.068325669 0.3428193
-0.0036409087 0.069652498 0.34287065
-0.063851036 0.036035232 0.34120238
-0.061482981 0.037020124 0.34125814
-0.059105985 0.037941366 0.34132603
-0.05688319 0.0393884 0.34165388
-0.054777093 0.040618211 0.34235957
-0.052481852 0.042548407 0.34252271
-0.050233878 0.043213516 0.34256792
-0.048056025 0.044523772 0.34265882
-0.045760661 0.045879208 0.34272212
-0.043535344 0.047216982 0.3435483
-0.041406281 0.048498418 0.34382316
-0.039086498 0.049900893 0.34389058
-0.036766745 0.051303357 0.34395799
-0.034497399 0.052623872 0.34396359
-0.032346211 0.054018468 0.34333426
-0.030136764 0.05536373 0.34315199
-0.027956186 0.056651399 0.34325671
-0.025763653 0.057885595 0.34367853
-0.023607273 0.05925804 0.34375054
-0.021256249 0.060607206 0.3437354
-0.018949065 0.061973404 0.34414878
-0.016860638 0.063375801 0.34378102
-0.01465654 0.064722672 0.34360185
-0.012483891 0.066036224 0.343665
-0.010181598 0.067418732 0.34373164
-0.007850185 0.068822414 0.34371808
-0.0058081523 0.07020288 0.34321773
-0.0042265244 0.071184844 0.34290889
-0.0017176569 0.073624343 0.34300882
-0.069003232 0.035877287 0.34113923
-0.067035004 0.0363525 0.3411755
-0.064879633 0.037365608 0.34122965
-0.062724762 0.038757168 0.34143987
-0.060579441 0.040036641 0.34196272
-0.058284555 0.041498899 0.34242627
-0.055959661 0.042880621 0.34260249
-0.053714298 0.044138268 0.34311807
-0.05159647 0.045498025 0.34282243
-0.049291376 0.046730794 0.34360367
-0.047112133 0.04805192 0.34365147
-0.044910751 0.049361367 0.34380862
-0.042727452 0.050681341 0.34387207
-0.027171379 0.060086165 0.34432414
-0.024851605 0.061488632 0.34439155
-0.022531793 0.062891126 0.34445897
-0.020348486 0.0642111 0.34452245
-0.018165212 0.06553106 0.3445859
-0.015951894 0.066865474 0.34447357
-0.013855513 0.068287969 0.34409419
-0.011549234 0.069739766 0.34398681
-0.009263888 0.071135566 0.34385085
-0.0069900602 0.072477028 0.3436861
-0.0050532557 0.073722407 0.34299168
-0.0025867075 0.075026363 0.34304002
-0.00087063015 0.076404944 0.34309986
-0.070338823 0.0373303 0.34116662
-0.068427928 0.03834904 0.34125984
-0.066223815 0.03959325 0.34175211
-0.064090587 0.040906787 0.34222347
-0.061907746 0.042275574 0.34240779
-0.059652619 0.043647565 0.34258792
-0.057355516 0.045065146 0.34346452
-0.055047762 0.046400875 0.34360677
-0.052869089 0.047724016 0.34364247
-0.01520234 0.070490435 0.34476474
-0.012849968 0.071937896 0.34454969
-0.010657281 0.073386215 0.34398666
-0.0084059723 0.074621409 0.34396267
-0.0061662942 0.075817622 0.34375632
-0.0040327348 0.077310778 0.34319511
-0.0017021596 0.078719057 0.34315819
0.00039193407 0.080148831 0.34322381
0.002309747 0.081574038 0.34328735
0.003495574 0.083070956 0.3433446
-0.074367754 0.038334221 0.34115022
-0.072118908 0.039263252 0.34120297
-0.069777876 0.040576436 0.34179956
-0.067567803 0.04182082 0.34233019
-0.065395139 0.043134354 0.34239334
-0.063208036 0.044487253 0.34256387
-0.061125543 0.045866307 0.34304374
-0.014308751 0.074173912 0.34477159
-0.01184611 0.07551565 0.34442675
-0.0097207129 0.076793715 0.34401134
-0.0075480528 0.078107253 0.34407449
-0.0052471235 0.079481483 0.34388739
-0.0031666569 0.081005841 0.34329551
-0.00090765953 0.082315788 0.34327251
0.0012543201 0.083622858 0.34333533
0.003034573 0.08495079 0.34339443
-0.077714898 0.039238635 0.34113869
-0.075715542 0.040011566 0.34135601
-0.073293597 0.041366059 0.3418453
-0.071051151 0.042741336 0.34240714
-0.06903775 0.044073481 0.34290269
-0.0666942 0.045447383 0.34310317
-0.064579792 0.046686169 0.34327823
-0.013208117 0.077652492 0.34399685
-0.011035454 0.078966022 0.34406
-0.0088627897 0.080279559 0.34412315
-0.0066901296 0.081593096 0.34418628
-0.0043831803 0.082982756 0.3441847
-0.0020694025 0.084397793 0.34413898
-7.1078539e-05 0.085789412 0.343575
0.0020213947 0.086838961 0.34343821
0.0036976896 0.089344434 0.34353057
-0.081164882 0.040320225 0.34113115
-0.079214863 0.040990848 0.34139046
-0.077069014 0.042196404 0.34223327
-0.074751824 0.043573685 0.34244812
-0.072451361 0.044911247 0.34323499
-0.070283361 0.046321303 0.34343135
-0.068100043 0.047641277 0.3434948
-0.010150347 0.082546636 0.3448374
-0.0081153326 0.083910629 0.34429204
-0.0057785995 0.085296795 0.34430513
-0.0034701414 0.08669243 0.34437218
-0.001267314 0.08799769 0.34430376
0.00084260106 0.089401819 0.34371945
0.0031644627 0.090740383 0.34356543
0.0043663867 0.091594107 0.34360403
-0.084960163 0.041089389 0.34111056
-0.082450725 0.041666947 0.34143519
-0.080641687 0.043143231 0.34219006
-0.078465924 0.044504471 0.34228495
-0.076147452 0.045878794 0.34253216
-0.07379216 0.047192849 0.34333888
-0.07160455 0.048504274 0.34348026
-0.0093441904 0.086184964 0.34502688
-0.0071754977 0.087604873 0.34435681
-0.0048670471 0.089000501 0.34442386
-0.0026943907 0.090314046 0.34448701
-0.00034938753 0.091590814 0.3444277
0.0017300695 0.092882328 0.34379619
0.0033716597 0.094406679 0.34367514
-0.088134266 0.042609185 0.34111899
-0.086216502 0.042718597 0.34126905
-0.084125973 0.044049714 0.34220734
-0.081953317 0.045363247 0.34227046
-0.079722859 0.046613127 0.34298563
-0.077434279 0.047976941 0.34328744
-0.075118802 0.049386647 0.34327862
-0.0085116476 0.089669988 0.34484994
-0.0063097663 0.091144033 0.3446621
-0.0040091202 0.092486352 0.34453568
-0.0018364675 0.093799882 0.34459883
0.00040915608 0.095114931 0.34398425
0.0026956759 0.096489273 0.34372842
0.0038746335 0.097788222 0.34377986
-0.089304149 0.044166375 0.3411513
-0.08760757 0.045007266 0.34139842
-0.08544071 0.046222016 0.34225601
-0.083268046 0.047535554 0.34231913
-0.081078932 0.048787117 0.34297457
-0.078751698 0.05015298 0.34339178
-0.0076038092 0.09311296 0.34525624
-0.005311925 0.094627686 0.34524572
-0.0032064244 0.095975183 0.34469172
-0.00089547038 0.097277828 0.34459531
0.0011610352 0.098741792 0.34397706
0.0032467283 0.10013019 0.34384128
-0.0931134 0.045651793 0.34115148
-0.090955362 0.046044629 0.34122753
-0.088924736 0.047110062 0.34199229
-0.086780816 0.048367038 0.34230357
-0.084616728 0.049246129 0.34235373
-0.08237502 0.051117063 0.3426342
-0.080113888 0.052459188 0.34289113
-0.0067399591 0.096851259 0.3456327
-0.004583437 0.098101959 0.34485582
-0.0022932775 0.099458046 0.34475929
3.0398369e-05 0.10084254 0.34465513
0.0021571182 0.10227627 0.34409773
0.0040112138 0.10375577 0.34395611
0.0054472499 0.10523909 0.34401587
-0.094317675 0.046921499 0.34117499
-0.092415318 0.04792941 0.34158456
-0.090325028 0.049388871 0.34229326
-0.088152684 0.050698772 0.34239799
-0.086006619 0.052022662 0.34253708
-0.083808042 0.053369444 0.34248382
-0.081543893 0.054754116 0.34278396
-0.0058481991 0.10046671 0.34511566
-0.0036901869 0.10176612 0.34481102
-0.0013817102 0.10316177 0.34487814
0.0009535104 0.10455325 0.34483865
0.0029890835 0.1056801 0.34404564
0.0047696643 0.10678555 0.34405345
-0.098078266 0.04921975 0.34119952
-0.096165597 0.049138181 0.34123647
-0.094016038 0.05059509 0.34212282
-0.091723487 0.051691741 0.34240729
-0.089560084 0.052953035 0.34310955
-0.087334976 0.054248985 0.34334069
-0.085203841 0.055636577 0.34254995
-0.082895055 0.057000678 0.3433049
-0.0072464347 0.10273984 0.34518811
-0.0050870962 0.1040742 0.3448627
-0.0027786195 0.10546985 0.34492984
-0.00037172064 0.10682383 0.34485587
0.0015766807 0.10803449 0.34414589
0.0033188947 0.10906361 0.34410366
-0.10154857 0.050074313 0.34118512
-0.099653348 0.050297417 0.34121323
-0.097490147 0.051206399 0.34177867
-0.095209986 0.052554503 0.34234604
-0.093055159 0.053824782 0.34297037
-0.090905316 0.055000566 0.34345117
-0.088601373 0.056438141 0.34351945
-0.086519673 0.057754043 0.34351912
-0.006354522 0.10628285 0.34534165
-0.0040933713 0.10764215 0.34497848
-0.0017849058 0.10903779 0.34504557
0.00035918504 0.11032365 0.34476453
0.0024386607 0.11172817 0.34422806
0.0039627887 0.11326919 0.34423411
-0.10259381 0.0514354 0.34121314
-0.10107949 0.052012455 0.3414036
-0.098828956 0.053337324 0.34225664
-0.096536197 0.05470825 0.3426441
-0.09439002 0.055974029 0.34342447
-0.092295051 0.057314534 0.34350315
-0.090006888 0.058714956 0.34357014
-0.0054548681 0.10974698 0.34508961
-0.0030996315 0.11121011 0.34509423
-0.00092696026 0.11252365 0.34515736
0.0012359247 0.11386031 0.34457067
0.0031979568 0.11511042 0.34427932
-0.10400353 0.053245235 0.34125012
-0.10243241 0.054131679 0.34201309
-0.10014725 0.055504717 0.34236073
-0.097761557 0.056781042 0.34244299
-0.095704302 0.058165681 0.34333304
-0.093543559 0.059460871 0.34355181
-0.0066947713 0.11196665 0.34507555
-0.0044143833 0.11338241 0.3451429
-0.0022496097 0.11466381 0.34520498
-3.2484531e-05 0.11604857 0.34472039
0.0020461529 0.11741741 0.3443338
0.0030712709 0.11904554 0.34439307
-0.10573711 0.055506721 0.34129664
-0.10380222 0.056455527 0.34177727
-0.10154416 0.057812791 0.34241247
-0.099276632 0.059275217 0.34322625
-0.097033113 0.060338899 0.34353787
-0.0081219859 0.11423938 0.34533283
-0.0058750734 0.11561199 0.34519157
-0.003610637 0.11701034 0.34525827
-0.0013953075 0.11836721 0.34484509
0.00082053244 0.11971473 0.34438714
0.0023542941 0.12002687 0.34441367
-0.10656704 0.057451334 0.34134415
-0.10519472 0.058758214 0.34182012
-0.10294312 0.060119499 0.34249189
-0.10060675 0.061345499 0.34334612
-0.098428607 0.062663287 0.34359008
-0.0095570497 0.11651789 0.34545347
-0.0072081909 0.11799857 0.34524632
-0.0050355271 0.11931211 0.34530944
-0.0027468465 0.12069586 0.34500074
-0.00056952611 0.1220115 0.34443858
0.000977844 0.12320297 0.34449106
-0.10817304 0.060322735 0.34140995
-0.10653558 0.060911097 0.34216502
