# .PCD v0.7 - Point Cloud Data file format
VERSION 0.7
FIELDS x y z
SIZE 4 4 4
TYPE F F F
COUNT 1 1 1
WIDTH 1231
HEIGHT 1
VIEWPOINT 0 0 0 1 0 0 0
POINTS 1231
DATA ascii
-0.09323258 -0.022713214 -0.0057685478
0.093263157 -0.017755823 -0.003818712
0.094800062 -0.017815754 -0.0044025695
0.097394906 -0.01771055 -0.0052871499
0.099097729 -0.017806128 -0.0057576606
-0.095080234 -0.020930503 -0.0057897661
0.093182586 -0.015418382 -0.0038219737
0.094850101 -0.015181142 -0.0042381315
0.097347923 -0.015104939 -0.0049937703
0.099330164 -0.014680599 -0.0048416615
0.09338136 -0.013050507 -0.003822309
0.094877161 -0.012582047 -0.0040409649
0.097300097 -0.012462898 -0.0047406559
0.099935822 -0.01236242 -0.0047542593
0.10151698 -0.011908639 -0.0047382382
-0.096457072 -0.015359351 -0.0058098896
0.093329899 -0.010872505 -0.0038250736
0.094800055 -0.010120137 -0.0038105503
0.097409636 -0.0099707972 -0.0040548779
0.099796027 -0.0099659367 -0.0047098012
0.10150153 -0.0099402638 -0.0043832255
-0.096715562 -0.011007026 -0.0058170445
-0.095937736 -0.010988637 -0.0058088955
0.095187992 -0.0074974867 -0.0038091331
0.09737879 -0.0073016426 -0.0042078267
0.099751227 -0.0073203575 -0.0049255351
0.1017153 -0.0071333339 -0.0046077091
-0.096977428 -0.009439338 -0.0058213612
-0.096056804 -0.009901843 -0.0058112536
0.09505327 -0.0047610849 -0.0038133406
0.097230352 -0.0047600809 -0.0045196451
0.099639446 -0.0046640802 -0.0056668008
0.10152546 -0.0057132333 -0.004744478
-0.097277045 -0.006407151 -0.005827629
-0.096366495 -0.0060177045 -0.005818482
0.094928592 -0.0022409155 -0.0038172218
0.097102106 -0.00209289 -0.0042213826
0.099540673 -0.001970194 -0.0048380131
0.10110983 -0.0012315351 -0.0047534127
-0.097247303 -0.0042105396 -0.0058296509
-0.09609694 -0.004251196 -0.0058174911
0.095296487 0.00020115776 -0.003815741
0.097062737 0.00052048219 -0.0044874996
0.099507891 0.00041842775 -0.0055062901
-0.097246006 -0.0023309954 -0.0058314377
-0.096291803 -0.0025914533 -0.0058211992
0.094687417 0.0031555975 -0.0038252627
0.096942954 0.0029671527 -0.0046555195
0.099409342 0.0030065277 -0.0056452323
0.094723046 0.0052632969 -0.0038270419
0.096956581 0.0054780068 -0.0040696561
0.098982699 0.0057317596 -0.0040420745
0.094712444 0.0084099434 -0.0038303523
0.096926093 0.0082028378 -0.0038069962
0.099301644 0.0084261978 -0.0037822938
0.094497241 0.010705842 -0.0038349684
0.096863605 0.010847562 -0.0038103526
0.099089041 0.010812852 -0.0037869303
-0.097326934 0.0082801655 -0.0058431551
-0.096538089 0.0078318398 -0.0058344286
0.094391882 0.013585416 -0.0038390295
0.096833631 0.013489272 -0.0041680927
0.099362977 0.013539066 -0.0044837054
0.10124211 0.013647282 -0.0043801307
0.092579231 0.016505631 -0.0038608937
0.094134696 0.016113739 -0.0038890881
0.096581794 0.016003884 -0.0045713931
0.099063046 0.015857894 -0.0047923094
0.10095614 0.015104686 -0.0047717113
0.092391096 0.018155053 -0.0038645356
0.094116122 0.018575918 -0.0042517111
0.096613593 0.018641718 -0.0048206947
0.098441437 0.018189309 -0.0048011919
0.094143838 0.021241352 -0.0040545608
0.096044675 0.02120428 -0.0047681779
0.092506513 0.023975518 -0.0038692865
0.094002135 0.023801634 -0.0041785184
0.096349597 0.023764787 -0.0048590512
0.092449158 0.026402436 -0.0038723815
0.093899325 0.026356008 -0.0044638375
0.095895857 0.026326746 -0.0053674881
0.092152655 0.029243149 -0.0038783613
0.093811229 0.028962143 -0.0040982715
0.095824324 0.028748339 -0.0048627481
0.091405846 0.031761386 -0.0041241539
0.0935084 0.031598467 -0.0044150688
0.095144898 0.030886864 -0.0038487047
0.089524999 0.034878951 -0.0039116922
0.091222674 0.034100633 -0.0042931456
0.09361282 0.034213655 -0.0048681009
0.095113486 0.034460332 -0.0048527271
-0.090683132 0.033162974 -0.0057989606
-0.08917243 0.033378299 -0.0057832999
0.088903889 0.036929514 -0.0040989574
0.091108441 0.036583453 -0.0045547429
0.093245156 0.036257133 -0.0048741619
0.09497299 0.035639733 -0.0048554046
-0.090536445 0.035009135 -0.0057993531
-0.089103825 0.035107229 -0.0057844212
0.088676505 0.03929792 -0.0044567436
0.091099098 0.03932758 -0.0051439032
0.092813954 0.039594218 -0.0057306546
-0.090029649 0.036720254 -0.005795714
-0.088669099 0.037415609 -0.0057822522
0.086121365 0.04230433 -0.0039549693
0.088313468 0.041827604 -0.0044480073
0.090589367 0.041808747 -0.0049076565
0.09262535 0.040907767 -0.0058854516
-0.088869184 0.038989171 -0.0057858676
0.083727598 0.044988181 -0.0043828478
0.085622333 0.044335168 -0.0045944029
0.088205121 0.044395182 -0.0048769941
0.090367101 0.044355042 -0.0049126172
-0.085540101 0.043960001 -0.0057560336
-0.08447548 0.044074118 -0.0057450058
0.0833764 0.047061861 -0.0048188376
0.085561112 0.047014531 -0.005013979
0.088222399 0.047183093 -0.0050644306
0.089904584 0.047295816 -0.0051426431
-0.085564643 0.045489915 -0.0057579582
-0.083882771 0.045695193 -0.0057405233
0.081295945 0.05048373 -0.0040138913
0.083049528 0.049499374 -0.0044688797
0.085543863 0.049414035 -0.0051485831
0.087826058 0.049014479 -0.0056523937
-0.085310683 0.047582623 -0.0057573598
-0.083429813 0.048059739 -0.0057382351
-0.08209528 0.048737876 -0.0057248198
0.078740783 0.053225171 -0.0040434757
0.080429845 0.052348685 -0.0040626968
0.082723148 0.052041885 -0.0046181362
0.08512897 0.051864713 -0.0049751508
-0.082899071 0.049818862 -0.0057343496
0.078353085 0.0548115 -0.004049175
0.080207229 0.054651003 -0.0044030789
0.082675673 0.054716244 -0.0049883118
-0.080597125 0.054089013 -0.0057146419
-0.078640446 0.054260075 -0.0056942906
0.077897802 0.057442993 -0.0040567098
0.080025807 0.057241019 -0.0042208447
0.082091786 0.057376411 -0.0043972698
-0.080134645 0.05565884 -0.0057113077
-0.078380436 0.056203924 -0.0056936257
-0.076231234 0.056694243 -0.0056715533
0.07524053 0.060253557 -0.0040874202
0.077500045 0.059959725 -0.0043967334
0.080040082 0.059859876 -0.004122931
0.082030542 0.059694111 -0.0040156743
-0.0781698 0.058428511 -0.0057391115
-0.075950243 0.058751907 -0.0056707542
-0.07407894 0.059074108 -0.0056513934
0.072644316 0.062514901 -0.0041169296
0.074856885 0.062347241 -0.0041462593
0.077215776 0.062130354 -0.0047716936
0.079657659 0.062412605 -0.004209958
0.081349753 0.06138109 -0.004024459
-0.077443592 0.060784619 -0.0056883502
-0.075972788 0.061303183 -0.0056735966
-0.073783919 0.06178138 -0.0056511112
-0.071686372 0.062744163 -0.0056300182
0.070043102 0.065607578 -0.0041472958
0.072136708 0.064963177 -0.0041248109
0.074853458 0.064951837 -0.0044228388
0.0770832 0.064701088 -0.0048033521
0.07931824 0.064193286 -0.0040485966
-0.075066708 0.063079327 -0.005665794
-0.07310646 0.063832641 -0.0056461054
-0.071334548 0.064229004 -0.0056279213
0.06732709 0.067856066 -0.0043031499
0.069563411 0.067514047 -0.0045389361
0.072011858 0.067480221 -0.0046648043
0.074433953 0.067157559 -0.0045473492
0.076523796 0.066613257 -0.0050804336
-0.072431549 0.065735936 -0.0056408853
-0.071511231 0.065683566 -0.0056311698
-0.068848304 0.067792326 -0.0056054257
0.064830825 0.070248842 -0.0042066732
0.066925056 0.069991283 -0.0046538706
0.06952069 0.07002347 -0.0051571913
0.071149662 0.06973096 -0.0051399213
-0.069859736 0.069191575 -0.0056174416
-0.068390861 0.069324166 -0.0056023141
-0.06609939 0.0697731 -0.0055787382
-0.064141415 0.070601687 -0.0055589559
0.060202897 0.073645137 -0.0042586536
0.061956432 0.072932884 -0.0042396197
0.064138032 0.072573714 -0.0044452944
0.066616826 0.072383314 -0.0049276166
0.0689345 0.071958505 -0.0051654167
-0.068127103 0.071524397 -0.0056017223
-0.065818503 0.072055772 -0.0055781403
-0.063250348 0.072194897 -0.0055513624
-0.061406761 0.072707191 -0.0055324119
0.056877252 0.076057054 -0.0042959778
0.059193775 0.075237952 -0.0042891586
0.061519958 0.07513424 -0.0043053217
0.063930474 0.074928075 -0.0048637479
0.065563478 0.074283995 -0.0052031577
-0.065584466 0.074319959 -0.0055779852
-0.063250527 0.0746179 -0.0055538393
-0.060839787 0.074751489 -0.0055287061
-0.058984522 0.075525418 -0.0055098999
0.054593604 0.078286052 -0.0043221926
0.056310955 0.077535808 -0.0043035289
0.058876507 0.077519916 -0.0046987189
0.061406195 0.077614687 -0.0051721111
0.063009121 0.076746814 -0.0042324066
-0.062540911 0.076424822 -0.0055480977
-0.060743734 0.077165313 -0.0055301646
-0.058216467 0.077431083 -0.0055039595
-0.055788625 0.078037992 -0.0054790708
-0.054164205 0.07872425 -0.0054626698
0.049238294 0.080961294 -0.0043810611
0.051118378 0.080660701 -0.0043611359
0.053817488 0.080415294 -0.0047929296
0.056165356 0.080014497 -0.0047264076
0.058624163 0.080137685 -0.0045792037
0.061046511 0.07942839 -0.0052557164
-0.059974555 0.079248436 -0.0055240961
-0.058070973 0.079753831 -0.0055047772
-0.055762131 0.079904661 -0.0054807146
-0.053529587 0.080295838 -0.0054575931
0.046661485 0.083520629 -0.0044106864
0.048494644 0.082726143 -0.0043907636
0.050978132 0.082551055 -0.0048871054
0.053475138 0.082406886 -0.0053226859
0.05609557 0.08207953 -0.0053103957
0.058043547 0.081673227 -0.0052895318
-0.054647658 0.081618451 -0.0054706936
-0.053315464 0.082328424 -0.0054575438
-0.050277464 0.083051518 -0.0054264376
-0.0480197 0.083271198 -0.0054029804
-0.046188351 0.083715983 -0.0053841481
0.043494679 0.085848421 -0.0046545891
0.045812398 0.085270837 -0.0047680843
0.04817621 0.085091949 -0.0050951829
0.050821237 0.085138611 -0.0053465595
0.052443393 0.084594183 -0.0053512179
-0.049970623 0.084715366 -0.0054248609
-0.047854643 0.085274883 -0.0054033413
-0.045446381 0.085545689 -0.0054194736
-0.042922564 0.08585605 -0.0054128421
-0.040296942 0.086348571 -0.0053251567
-0.038300678 0.086793266 -0.0053046113
0.03551691 0.087840438 -0.004531994
0.037678432 0.087919973 -0.0047835996
0.040827807 0.087693289 -0.0048412276
0.043019734 0.08732523 -0.0052428055
0.045451816 0.087350242 -0.0054076798
0.048167974 0.087397076 -0.0053988229
0.050082065 0.087149188 -0.0053785648
-0.045196831 0.087269835 -0.0061690835
-0.042757373 0.088076942 -0.0062232134
-0.040233899 0.088443793 -0.0058380128
-0.037697341 0.088438064 -0.0054154727
-0.035249628 0.088944532 -0.0052748863
-0.032905053 0.089375779 -0.0052506905
0.031083807 0.089985743 -0.0045805648
0.032575004 0.090114422 -0.004565184
0.0350677 0.090017661 -0.004538971
0.037625339 0.090069465 -0.0052329786
0.040239405 0.089737095 -0.0054023466
0.042894527 0.089310445 -0.0054561142
0.044564575 0.089069076 -0.0054383767
-0.041659836 0.08951129 -0.0073427144
-0.040276885 0.08967606 -0.0073284158
-0.037526269 0.089995019 -0.0062510921
-0.034935873 0.090785749 -0.0052735526
-0.032505505 0.090910688 -0.0052482048
-0.030017374 0.091114946 -0.0052223322
-0.027221639 0.091765985 -0.0051936018
-0.024847178 0.09187004 -0.0051687886
-0.02268526 0.092187986 -0.0051464369
0.024895184 0.092743844 -0.0046483427
0.026134431 0.092608325 -0.0046351398
0.031101417 0.093192734 -0.0045836712
0.032498769 0.092234492 -0.0048468015
0.03505639 0.092240043 -0.0050635706
0.037445612 0.092062898 -0.0053115138
0.039253261 0.091875903 -0.0054969187
-0.032369707 0.093368955 -0.0052492772
-0.029923417 0.093617916 -0.0052239187
-0.027278844 0.093680412 -0.0051962617
-0.024697717 0.093848504 -0.0052818279
-0.02212826 0.093903467 -0.005437097
-0.019636584 0.094177172 -0.0052737873
-0.01707131 0.094338901 -0.005089906
-0.014264908 0.094599523 -0.0053348769
-0.011779679 0.094467461 -0.0055002412
-0.0092946412 0.094925195 -0.0051950095
-0.0074400706 0.095057465 -0.0049895486
-0.00070696394 0.095553905 -0.0049195075
7.0851529e-05 0.0955723 -0.0049113729
0.019820848 0.09518531 -0.004704027
0.022081146 0.095111236 -0.0046803034
0.024155429 0.094020844 -0.0046572974
0.031083038 0.093970597 -0.0045846584
0.031629354 0.09390568 -0.0045788656
-0.031671371 0.09513317 -0.0052436548
-0.02991016 0.095252626 -0.0052252859
-0.027315604 0.095236152 -0.005198102
-0.0244729 0.095409557 -0.0056129326
-0.022181943 0.095485091 -0.0064778989
-0.019504625 0.095583886 -0.0059426869
-0.0168027 0.096063867 -0.0054297508
-0.014480393 0.096567161 -0.0059619294
-0.011831572 0.096660547 -0.0060372022
-0.0091491304 0.096718661 -0.005910567
-0.0066529475 0.097120002 -0.0053085214
-0.0038145524 0.097449131 -0.0051401434
-0.0014367399 0.09707386 -0.0053761122
0.00014020363 0.0968927 -0.0050172331
-0.013055442 0.098135449 -0.006051627
-0.0091858078 0.098226935 -0.0060111582
-0.0064031957 0.09850616 -0.0050298148
-0.0041437061 0.098538995 -0.0050949347
-0.0016013305 0.098406248 -0.0059318389
0.002930827 -0.097291507 -0.0036843277
0.008218063 -0.096848406 -0.0036293431
-0.018213009 -0.094865993 -0.0039084405
-0.015086193 -0.094792068 -0.003875755
-0.011918183 -0.09525758 -0.0038420416
-0.0099002458 -0.095088027 -0.0035841505
-0.0070266956 -0.095251232 -0.0036106687
-0.004676172 -0.095197886 -0.0036179896
-0.0020688386 -0.095310502 -0.0037194162
0.00056822691 -0.095201969 -0.0033923101
0.0031072106 -0.09530393 -0.0033662324
0.0055748094 -0.095057867 -0.003599942
0.0081292791 -0.095297754 -0.0036317534
0.01078439 -0.094806194 -0.0036044535
0.013471999 -0.094554931 -0.0035765679
0.016106324 -0.094415627 -0.0035491115
0.018170552 -0.094531447 -0.0035273703
-0.027034596 -0.092258692 -0.0040035741
-0.025386367 -0.092501327 -0.0039860494
-0.022859054 -0.092748493 -0.0039592152
-0.020171721 -0.093091644 -0.0036512683
-0.017748084 -0.093269393 -0.0035676083
-0.015158599 -0.093304142 -0.0034137031
-0.012550484 -0.093202591 -0.0031841435
-0.010020265 -0.09313339 -0.0029269492
-0.0072700251 -0.093090408 -0.0028813102
-0.0047409954 -0.093071572 -0.0028923575
-0.0023495285 -0.0933211 -0.0031246897
0.00056145096 -0.093710184 -0.0028128168
0.0029418431 -0.093471907 -0.0026880712
0.0048730224 -0.093857907 -0.0032674621
0.011379109 -0.09337502 -0.0035580753
0.013510075 -0.09272483 -0.0029498301
0.015962839 -0.092481129 -0.0031745431
0.018637165 -0.092336126 -0.0033181203
0.021185488 -0.092086703 -0.003449773
0.023770988 -0.091823108 -0.0034713568
0.026142793 -0.09145464 -0.0034469159
0.028941285 -0.091182344 -0.0034179341
0.030498857 -0.090898521 -0.0034018822
-0.032913029 -0.090410918 -0.004067081
-0.03078443 -0.090485826 -0.0040037711
-0.028042452 -0.090579562 -0.003657327
-0.025626395 -0.090871848 -0.0034485424
-0.023085872 -0.090890765 -0.0032650195
-0.020413637 -0.090772837 -0.002935766
-0.017858632 -0.090918042 -0.002908746
-0.01529002 -0.091275528 -0.0028813963
-0.01265783 -0.091228835 -0.0028538676
-0.010016631 -0.090760157 -0.0028267349
-0.0076354058 -0.091050826 -0.0028014029
-0.0052718152 -0.091410562 -0.0027762598
0.014178466 -0.091055542 -0.0025727393
0.015918862 -0.090787321 -0.0025548146
0.018815605 -0.090370983 -0.0025248008
0.021133088 -0.090123117 -0.0026608389
0.023860896 -0.08990439 -0.0028216494
0.026403852 -0.089625455 -0.0029460269
0.029000623 -0.089462936 -0.0033046361
0.031354077 -0.089262821 -0.0033944841
0.034130376 -0.088490821 -0.0033662899
0.037321217 -0.088338524 -0.0033329984
0.03825679 -0.088212118 -0.0033233056
-0.042786904 -0.087625124 -0.0041734278
-0.041176099 -0.087939009 -0.0041561923
-0.038654391 -0.088074952 -0.0041295607
-0.035977136 -0.088194892 -0.0040213508
-0.033313371 -0.08829537 -0.0033810327
-0.030982105 -0.088753447 -0.0031829071
-0.028319472 -0.088846944 -0.0030204407
-0.025712393 -0.089060321 -0.0029929243
-0.022914499 -0.088796906 -0.0029638351
-0.020757835 -0.088625386 -0.0029414336
-0.018875867 -0.089321561 -0.002920995
0.024569064 -0.087697044 -0.0024672677
0.026511308 -0.087558314 -0.0024470056
0.028773634 -0.087591827 -0.0025771498
0.031522568 -0.087088384 -0.0030298852
0.034105636 -0.086953245 -0.002962667
0.036718488 -0.086698405 -0.0031837011
0.038813643 -0.086501844 -0.003319141
-0.045511197 -0.084873669 -0.0042047948
-0.043745313 -0.085846335 -0.0041083815
-0.041359257 -0.08611457 -0.0035866369
-0.038804714 -0.086191215 -0.0032611005
-0.036188751 -0.086486056 -0.0031997741
-0.033641841 -0.086568832 -0.0030785582
-0.032030974 -0.087012313 -0.0030612494
0.032070991 -0.085392036 -0.00239097
0.034048904 -0.08465907 -0.0023710453
0.036782932 -0.084365398 -0.0025496604
0.039235495 -0.083997779 -0.0031485716
0.041713286 -0.083777428 -0.0032157078
0.044252321 -0.083496183 -0.0032651569
0.046301398 -0.08294642 -0.0032443737
-0.048819236 -0.082574047 -0.00424182
-0.046238422 -0.08345855 -0.0039588758
-0.04404201 -0.083511747 -0.003308469
-0.041681129 -0.083743609 -0.003165744
-0.039707132 -0.084272213 -0.003144512
0.037422899 -0.082357034 -0.0023379999
0.039501116 -0.082016401 -0.0023165187
0.0418946 -0.081596337 -0.0023996746
0.044377498 -0.081367612 -0.0027962192
0.046677452 -0.081040524 -0.0031638155
0.04924297 -0.080286995 -0.0032162557
-0.053755447 -0.08021903 -0.0042959829
-0.051498875 -0.080526091 -0.0041751526
-0.049293868 -0.081059828 -0.0037028396
-0.046456963 -0.081442982 -0.0032181854
-0.04436639 -0.081691839 -0.0031960323
0.042628832 -0.079797126 -0.0022860151
0.044443667 -0.079352453 -0.0022674159
0.046918202 -0.078915298 -0.0024795658
0.049538754 -0.078748509 -0.002654725
0.051897764 -0.078296199 -0.003052409
0.054523457 -0.077947967 -0.0031632339
-0.059453905 -0.077381454 -0.0043585994
-0.056828711 -0.077945143 -0.0043304311
-0.05425464 -0.078300968 -0.0040450129
-0.052165776 -0.078631595 -0.0034194274
-0.049975369 -0.079221055 -0.0032573361
0.047804244 -0.07705453 -0.0022345814
0.049651332 -0.076321319 -0.0022160283
0.052162748 -0.076046281 -0.0024854308
0.054636482 -0.075782888 -0.0029713695
0.056912899 -0.075389117 -0.0031407564
-0.061595101 -0.075033382 -0.0043834574
-0.059563749 -0.075703941 -0.0043396032
-0.057140637 -0.075844727 -0.0040699947
-0.054629058 -0.075919822 -0.0035403064
-0.052937329 -0.076567031 -0.0032910653
0.05056927 -0.074316494 -0.0022083796
0.052076265 -0.073910952 -0.002192982
0.054832704 -0.073495239 -0.0022130192
0.057085346 -0.073188491 -0.0029114676
0.059377987 -0.072796524 -0.0031175648
-0.067383744 -0.073038049 -0.0044461144
-0.064879589 -0.073368557 -0.0042527891
-0.062367078 -0.073423572 -0.0041359263
-0.059795301 -0.073527992 -0.0036286449
-0.057174213 -0.073404975 -0.0033387968
-0.055206995 -0.07436914 -0.0033171016
0.055581987 -0.071341917 -0.0021589033
0.057328384 -0.070846893 -0.0022904356
0.059522502 -0.070596553 -0.0024692114
0.062173396 -0.070213206 -0.002968437
0.063887544 -0.069563791 -0.0030736714
-0.067498691 -0.071173087 -0.0044491496
-0.065173998 -0.071106941 -0.0036888698
-0.06255722 -0.071034268 -0.0033976596
-0.059790965 -0.071093641 -0.0033686024
-0.057529256 -0.071180932 -0.0033446562
0.057940379 -0.068819381 -0.0021367588
0.059698209 -0.0681265 -0.0021191149
0.062254742 -0.06808421 -0.0026224386
0.064646319 -0.067895249 -0.0030673177
-0.074081086 -0.067402445 -0.0045221192
-0.06991718 -0.068187878 -0.0044775801
-0.067709208 -0.068427831 -0.0041771028
-0.065244198 -0.068515606 -0.0035653922
-0.063070856 -0.069216847 -0.0034048557
0.059879448 -0.065751657 -0.0021195812
0.062247746 -0.065494686 -0.0022536651
0.064764522 -0.065292954 -0.0026080867
0.067022592 -0.064867318 -0.0028818632
0.068970837 -0.064020485 -0.003026064
-0.074561186 -0.06694448 -0.0045276196
-0.072965376 -0.066072419 -0.0045117973
-0.070327446 -0.065880582 -0.0044841929
-0.067900099 -0.065831989 -0.0037089752
-0.065701976 -0.06641607 -0.0034352967
0.062372062 -0.063748606 -0.0020954546
0.065004259 -0.063150965 -0.002068429
0.067547776 -0.062693916 -0.002263186
0.069566727 -0.062288012 -0.0026541345
-0.075151667 -0.063019074 -0.0045378041
-0.072979078 -0.063256621 -0.0044982764
-0.070500612 -0.063374437 -0.0039886511
-0.068642072 -0.063733831 -0.0034688108
0.067656495 -0.060297694 -0.0020435867
0.069832303 -0.059977185 -0.0020211961
0.072239123 -0.059602845 -0.0027184403
0.074298464 -0.059107564 -0.0029752371
-0.077284425 -0.060560197 -0.0045627016
-0.075722329 -0.060876381 -0.0045029824
-0.073207848 -0.060941249 -0.0040195445
-0.071134105 -0.061102327 -0.0034975912
0.068434909 -0.058644269 -0.0020371161
0.070084035 -0.058276564 -0.0020202498
0.072501369 -0.05764119 -0.0023199162
0.074829511 -0.057163179 -0.0028416368
0.076603152 -0.056018203 -0.0029542344
-0.077604853 -0.057958748 -0.004568703
-0.075760238 -0.058183856 -0.0041107507
-0.073369674 -0.058460776 -0.0035238126
-0.071701393 -0.059206039 -0.0035054896
0.072987191 -0.055032991 -0.0019930867
0.074984431 -0.05466041 -0.0023788044
0.077229001 -0.054212946 -0.0028744121
-0.080214173 -0.055439234 -0.0045986283
-0.078315265 -0.055487379 -0.0041341777
-0.076108851 -0.055730388 -0.0037517375
-0.074358828 -0.056517605 -0.0035360917
0.073336489 -0.053183082 -0.0019913148
0.075290889 -0.052397974 -0.0019715857
0.077537082 -0.051993974 -0.0023806258
0.079469875 -0.051820502 -0.0029284428
-0.08069443 -0.052750923 -0.0044920356
-0.078575939 -0.053201199 -0.003653232
-0.07643009 -0.054019678 -0.0035603696
0.076030485 -0.050100859 -0.001966239
0.077711016 -0.049675088 -0.0020761127
0.079510756 -0.049190849 -0.002730641
-0.08303266 -0.050190929 -0.0046335487
-0.081230871 -0.050503809 -0.0042984495
-0.079211392 -0.050746355 -0.0035928232
0.078416586 -0.047088813 -0.0019443191
0.079889737 -0.046696112 -0.0024757937
0.082285412 -0.046368435 -0.0029044242
-0.083469257 -0.047815021 -0.0046404474
-0.081402496 -0.047931626 -0.0040320773
-0.07966572 -0.048453592 -0.0035999722
0.078485467 -0.044886168 -0.0019458171
0.07997296 -0.04422348 -0.0021378757
0.08232329 -0.044046506 -0.0027442058
0.083875991 -0.043393902 -0.002890894
-0.085682735 -0.045118544 -0.0046664933
-0.083934888 -0.04540918 -0.004465967
-0.081637204 -0.045553733 -0.0037271094
0.080589227 -0.042438906 -0.001926265
0.082492433 -0.041642927 -0.0022838202
0.084369399 -0.041111987 -0.0027768244
-0.08798331 -0.041762613 -0.0046940371
-0.086361222 -0.042680942 -0.0046759765
-0.084174976 -0.043281198 -0.0042024809
-0.082310937 -0.043761563 -0.0036324782
0.082660392 -0.038913336 -0.0019081556
0.084689148 -0.038788009 -0.0025024104
-0.087990701 -0.041449916 -0.0046944339
-0.086338028 -0.040291384 -0.0045595542
-0.084127337 -0.040158592 -0.0037398271
-0.082075723 -0.039837461 -0.003634006
0.082772203 -0.03680481 -0.0019091375
0.084870867 -0.036261275 -0.0022464443
0.086868428 -0.035772257 -0.0026386557
-0.0863683 -0.038064472 -0.0043058172
-0.08429423 -0.037832007 -0.0036593396
-0.082539432 -0.038526464 -0.003640221
0.085136503 -0.033606548 -0.001965842
0.087166212 -0.033436108 -0.0027047116
0.089061029 -0.032445896 -0.0028477262
-0.088504776 -0.034405038 -0.0047070337
-0.086646304 -0.035018668 -0.0041110683
-0.085089058 -0.0354615 -0.0036700927
0.085290462 -0.031168144 -0.0019102551
0.087359503 -0.030915657 -0.0024999999
0.089551613 -0.030760432 -0.0028442012
-0.090728581 -0.031502694 -0.0047332938
-0.089023985 -0.032525901 -0.004569116
-0.087261759 -0.032715023 -0.0037226602
0.085620694 -0.028568355 -0.0018877072
0.08750882 -0.028494874 -0.0020522983
0.089627743 -0.028245032 -0.0027914017
-0.091439657 -0.030096676 -0.0047420943
-0.089242749 -0.029976921 -0.0043986612
-0.087520637 -0.030211056 -0.0037009441
0.085793935 -0.026853757 -0.0018876425
0.087520629 -0.025902119 -0.0019033588
0.08964619 -0.02585437 -0.0026330515
0.091207892 -0.025324203 -0.0028324972
-0.091876999 -0.027364423 -0.0047494252
-0.089704148 -0.027428351 -0.0039807092
0.08570379 -0.022705412 -0.0018928102
0.087402545 -0.023139289 -0.0021603801
0.089731827 -0.023137745 -0.0028095059
0.091554366 -0.022824612 -0.0028313738
-0.091496348 -0.024794064 -0.0047481055
-0.089929931 -0.024869049 -0.0039716526
0.085799359 -0.021759862 -0.0018927744
0.087387696 -0.021201532 -0.0018766803
0.089577526 -0.020421576 -0.0019974476
0.092176601 -0.020108745 -0.0028053324
-0.093786553 -0.021250164 -0.0047758212
-0.092096858 -0.022174023 -0.0044884533
-0.09036772 -0.022401249 -0.003738736
0.085530855 -0.017049761 -0.0019004002
0.087314464 -0.017449291 -0.0018812809
0.089682281 -0.017930709 -0.001896115
0.092060819 -0.017911216 -0.0026074946
-0.099303871 -0.018746873 -0.0038361549
-0.096979514 -0.019463658 -0.0045757391
-0.094891153 -0.019675104 -0.0047888746
-0.092423365 -0.019619728 -0.0042759771
-0.09053614 -0.019606408 -0.0037433712
0.085673131 -0.016417535 -0.0018995546
0.087336928 -0.015864631 -0.0018826791
0.089606337 -0.015259543 -0.0018595979
0.092048422 -0.015228754 -0.0025481787
0.093756028 -0.014000516 -0.0028173539
-0.099304259 -0.017679473 -0.0038373091
-0.097282708 -0.01726464 -0.0045398702
-0.094980672 -0.017054603 -0.00479249
-0.092502967 -0.017005999 -0.0040906435
-0.090250507 -0.0166777 -0.0037433242
0.090346418 -0.01339143 -0.001853674
0.092283159 -0.012881578 -0.002526165
0.093803041 -0.012378152 -0.0028185332
-0.096784949 -0.014722263 -0.0048139347
-0.095022246 -0.014560047 -0.004795474
-0.092570052 -0.014498396 -0.0040477715
-0.090236768 -0.01455722 -0.0037454206
0.090476215 -0.0094494112 -0.0018563401
0.092167757 -0.010016055 -0.0023949922
0.093933828 -0.0097551411 -0.0028198417
-0.097123563 -0.012428344 -0.0048197526
-0.095015302 -0.011978339 -0.0047980384
-0.092661038 -0.011831116 -0.003946525
-0.090997159 -0.012356219 -0.0037556246
0.090391092 -0.0085081328 -0.0018581939
0.09221179 -0.0074606705 -0.0020928122
0.094324574 -0.0073416429 -0.0028180769
-0.096974738 -0.0084281992 -0.0048223534
-0.095018633 -0.0091303242 -0.004737515
-0.092961706 -0.0093476176 -0.0038773462
0.09019082 -0.004467201 -0.001864451
0.092031203 -0.0047998959 -0.0022766641
0.0941635 -0.0047611166 -0.0028224313
-0.097095653 -0.0073779207 -0.0048246938
-0.095113456 -0.0069418075 -0.0046178182
-0.092793934 -0.0065266625 -0.0038471597
-0.091171309 -0.0058725961 -0.0037640582
0.089488707 -0.0025867375 -0.001873642
0.092036694 -0.0023597078 -0.0023228368
0.094054572 -0.0022987565 -0.0028260886
-0.094981313 -0.0039170012 -0.0048059318
-0.092811555 -0.0041264449 -0.0041392525
-0.091139056 -0.0041883234 -0.0037654852
0.09228529 0.00028216897 -0.0021500071
0.094432622 0.00044968666 -0.0028248881
0.095913924 0.00059911329 -0.0028096477
-0.097490408 -0.0010400629 -0.0048352163
-0.095232397 -0.0014083937 -0.0046682609
-0.092858903 -0.001454507 -0.0038006715
-0.091351554 -0.0026801524 -0.0037692087
0.092176512 0.0032670409 -0.0021280728
0.093924761 0.0028595286 -0.0028327331
-0.097719789 0.00091555878 -0.0048395884
-0.09533824 0.00098205195 -0.0048146774
-0.093185239 0.0010713732 -0.0040164627
0.092016056 0.0055899266 -0.0021117269
0.094007723 0.0058024996 -0.0028348546
0.10067099 0.0067083184 -0.0027660085
0.10203604 0.0067487122 -0.0021961797
-0.097598724 0.0034835476 -0.0048409575
-0.09543433 0.0038248096 -0.0048185736
-0.093402751 0.004119094 -0.0042335233
0.090116188 0.008448869 -0.0018783821
0.091899276 0.0081247138 -0.0020902515
0.093986042 0.0079908064 -0.0028373026
0.10063439 0.0073749167 -0.0027670879
0.10219954 0.0083375424 -0.00271821
-0.097504757 0.0067603751 -0.0048433645
-0.095534816 0.0063978005 -0.0048222551
-0.093176879 0.0062035178 -0.0040943688
0.089778863 0.010819806 -0.0018843994
0.091762878 0.010607528 -0.0020097678
0.093599871 0.011043798 -0.0027562643
0.10058746 0.0113473 -0.0027716523
0.10155202 0.011076787 -0.0027611759
-0.097514346 0.0088085784 -0.0048455275
-0.095576972 0.0089171827 -0.0048252707
-0.093121588 0.0090980977 -0.0042774621
-0.091455095 0.0091871321 -0.0037824609
0.089778841 0.01292152 -0.0018865466
0.09168601 0.013319016 -0.0020390793
0.093574904 0.013067275 -0.0026889113
0.10157781 0.012465771 -0.0027623991
-0.097441323 0.011318149 -0.0048473552
-0.095653035 0.01140099 -0.0048286053
-0.093166888 0.01154061 -0.0041500549
-0.091408797 0.011782275 -0.0037846267
0.0915948 0.015901044 -0.0022775282
0.093165763 0.015395633 -0.002853584
-0.097097039 0.012931215 -0.004845439
-0.095447041 0.013908843 -0.0048290375
-0.093238942 0.014108538 -0.0042667184
-0.091372699 0.01408089 -0.0037865667
0.089652315 0.018766932 -0.0018937993
0.091371767 0.018456675 -0.0025306095
0.093041793 0.019538276 -0.0028591002
-0.095760852 0.016699903 -0.0048351483
-0.093183577 0.016746299 -0.0044056624
-0.091333255 0.017149661 -0.003789258
0.088932171 0.021299658 -0.0019039799
0.091240868 0.021132171 -0.0025099774
0.093193732 0.02114721 -0.0028591512
-0.095491245 0.019118886 -0.0048348228
-0.093183547 0.019283386 -0.0047968673
-0.090766676 0.01958801 -0.0038176703
-0.089072891 0.020641543 -0.003769146
0.087244011 0.023552217 -0.001923917
0.088690549 0.023713203 -0.0019090078
0.091282994 0.02371639 -0.0024271896
0.092932694 0.023493545 -0.0028642844
-0.095361225 0.021699771 -0.0048361113
-0.09324275 0.021939216 -0.0048141046
-0.090569198 0.022050086 -0.0043305946
-0.088903181 0.022069737 -0.0037688706
0.088769406 0.02625237 -0.0019107452
0.091195777 0.026338495 -0.0025142333
0.092881091 0.026339471 -0.0028677471
-0.094908878 0.024358127 -0.0048341895
-0.093305543 0.024597155 -0.004817463
-0.090544768 0.024634577 -0.0045663882
-0.088783421 0.024654452 -0.0037702108
0.088755876 0.02887826 -0.0020585363
0.09104602 0.02888119 -0.0027881712
0.092762277 0.028057465 -0.0028707327
-0.094905905 0.026123699 -0.004835947
-0.093154967 0.027051577 -0.0048184218
-0.090570249 0.027167305 -0.0045887642
-0.088365115 0.027461387 -0.0037687528
0.086780258 0.032533951 -0.0019379677
0.088691756 0.031449649 -0.00224118
0.090470567 0.031225877 -0.0028979019
-0.092948049 0.029703101 -0.004818961
-0.090753391 0.029805649 -0.0047823358
-0.088366099 0.029849404 -0.0040287538
-0.086587206 0.030211817 -0.003752911
0.086438566 0.034307331 -0.0021308581
0.088363439 0.034024045 -0.0027006145
0.090094022 0.033853646 -0.0029046079
-0.092728123 0.031789523 -0.004818921
-0.090821385 0.032008421 -0.0047990535
-0.088160053 0.032395698 -0.0046351692
-0.086332008 0.032726131 -0.0038746877
0.083744101 0.037074611 -0.001974432
0.086018398 0.03660924 -0.0022002021
0.087913729 0.036585022 -0.0029301778
-0.087943897 0.035044923 -0.0047719926
-0.085931771 0.035102032 -0.0041260445
-0.084295511 0.03579472 -0.0037345472
0.083392106 0.039077219 -0.0019971703
0.085739098 0.03912222 -0.0024968069
0.087619938 0.03913676 -0.0029358938
-0.087729402 0.037724826 -0.0047725267
-0.085875012 0.037721314 -0.0044197273
-0.084164299 0.03795553 -0.0037354087
0.081106402 0.042054188 -0.0020071825
0.08305084 0.041687675 -0.0025056712
0.085544102 0.041575238 -0.002943126
0.087334558 0.040952507 -0.0029408145
-0.08991541 0.040008109 -0.0047978181
-0.088398866 0.040373579 -0.0047821752
-0.085943349 0.040349152 -0.0046694428
-0.083588526 0.040583394 -0.0040074466
-0.081889629 0.041312207 -0.0037149789
0.080530442 0.044423312 -0.0020156547
0.082830697 0.044331789 -0.0025470103
0.084783055 0.04356464 -0.0029702284
-0.088013686 0.042674951 -0.004780578
-0.086054772 0.042887039 -0.0047601564
-0.083512023 0.043045398 -0.0046307361
-0.081153713 0.043516859 -0.0037094872
0.078375652 0.046994682 -0.0020408239
0.080248982 0.04681186 -0.0020211048
0.082139581 0.046834257 -0.0023169487
-0.088046513 0.045322258 -0.0047835815
-0.086993568 0.045272529 -0.004772583
-0.082911775 0.045365207 -0.004729772
-0.080855668 0.045721021 -0.0039761947
-0.078811459 0.046485353 -0.0036880416
0.077946007 0.0494694 -0.0020479299
0.080276519 0.049532473 -0.0023852813
0.081987143 0.049201623 -0.002908431
-0.082337484 0.04766494 -0.0047262055
-0.080736458 0.048337031 -0.0045478567
-0.07828775 0.048506729 -0.0036846318
-0.076720633 0.049142435 -0.0036687797
0.075710401 0.052600134 -0.0020745473
0.077753417 0.052173518 -0.0023185625
0.079719685 0.051754594 -0.0028687613
-0.082841478 0.051230215 -0.0047351005
-0.080887213 0.05082427 -0.0046693161
-0.078387916 0.051012039 -0.0039609773
-0.076257214 0.051121734 -0.0036659141
0.073251233 0.055104598 -0.0021028686
0.075100593 0.054616682 -0.002099168
0.07734745 0.054492801 -0.002656488
0.079020083 0.053544633 -0.0030408171
-0.082919672 0.052883983 -0.0047376091
-0.081036255 0.052934092 -0.0047178585
-0.078334779 0.053153727 -0.0046697371
-0.076062724 0.053565107 -0.0039997734
-0.07425531 0.054426238 -0.0036483351
0.072705403 0.057166941 -0.0021106817
0.075104333 0.057062276 -0.0024348951
0.077104703 0.056970328 -0.0030410278
-0.077442706 0.055008035 -0.0046823979
-0.07559514 0.055770807 -0.0045947246
-0.073438875 0.056349978 -0.0040306691
-0.071727566 0.057125304 -0.0036246106
0.070232123 0.060237035 -0.0021397732
0.07231348 0.059773326 -0.0023828568
0.07471624 0.059364427 -0.0028977776
0.076603957 0.058702074 -0.0030714269
-0.074691392 0.0577325 -0.0046563409
-0.07303752 0.058672674 -0.0046194298
-0.071035996 0.059085246 -0.0039144671
0.067445159 0.063084118 -0.0021718652
0.069685742 0.062367521 -0.0025113153
0.071864381 0.062051423 -0.0030366825
0.07383246 0.061243825 -0.0031030597
-0.072498322 0.06091309 -0.0046366164
-0.070741773 0.061456878 -0.004237134
-0.068674281 0.061948676 -0.0036287517
0.064868785 0.064929754 -0.0022006973
0.067054339 0.064812675 -0.0023511422
0.06937018 0.064620502 -0.0029587534
0.071344465 0.064146876 -0.0031321198
-0.074091643 0.06494277 -0.0046574343
-0.070456058 0.063855447 -0.0046181101
-0.068324432 0.064225689 -0.00430864
-0.065921135 0.064415067 -0.0037486453
-0.06415797 0.064936332 -0.0035532278
0.06247969 0.067812331 -0.0022287597
0.064479791 0.067420751 -0.0025206935
0.066679418 0.066974863 -0.002886957
0.068745814 0.066325091 -0.0031615847
-0.073601492 0.06589298 -0.0046532522
-0.07044559 0.066816837 -0.0046210256
-0.068335645 0.066799678 -0.0045988313
-0.065625295 0.066767685 -0.0044154818
-0.063361123 0.067139983 -0.0036814972
-0.060990147 0.067862064 -0.003523055
0.05727851 0.07087297 -0.0022863615
0.059105534 0.070727505 -0.0022671209
0.061665237 0.070015386 -0.0026230945
0.064010285 0.06971547 -0.0031115951
0.065830722 0.068876497 -0.0031947331
-0.070705816 0.06866847 -0.004625719
-0.068056203 0.0682142 -0.0045975111
-0.065437987 0.068949223 -0.0045707272
-0.063166536 0.069356449 -0.0044748206
-0.060615271 0.069596522 -0.0039696111
-0.058573518 0.070086665 -0.0034999661
0.054734495 0.073197253 -0.0023154025
0.056582544 0.072540365 -0.002492409
0.058911808 0.072363794 -0.0027638853
0.061306451 0.072151095 -0.0031142605
0.063319802 0.07142441 -0.0032236706
-0.062898204 0.071115181 -0.0045464067
-0.060457584 0.071996458 -0.0045215744
-0.058069032 0.072256818 -0.0039644446
-0.055794343 0.072994806 -0.0034738341
-0.054160755 0.073347867 -0.0034570266
0.049537595 0.07579945 -0.0023725361
0.051396638 0.075347938 -0.002352573
0.053937975 0.074998759 -0.002419445
0.056275353 0.074901313 -0.0030400855
0.058646422 0.074529126 -0.0032757253
0.060498677 0.073860705 -0.0032557012
-0.05977368 0.074162073 -0.0045167673
-0.057979543 0.074797519 -0.0044823214
-0.055570815 0.07486698 -0.003901955
-0.053561646 0.075325087 -0.0034527364
0.049021099 0.077556565 -0.0024337647
0.050871447 0.077422693 -0.0027676926
0.053734545 0.077414624 -0.0030547569
0.055489466 0.077079594 -0.0033114972
-0.057389561 0.076422296 -0.004494085
-0.05536887 0.07707838 -0.0044507137
-0.053172797 0.077509694 -0.0041523585
-0.050114751 0.077942669 -0.0037866577
-0.048169598 0.078318246 -0.0033993027
0.04139832 0.080952339 -0.0024631179
0.04326427 0.080573909 -0.0024431571
0.045871634 0.080343463 -0.0024156054
0.048479933 0.08003667 -0.0029724073
0.050927397 0.079706766 -0.0033375178
0.052811705 0.079480179 -0.0033420485
-0.052587431 0.079993963 -0.0044472618
-0.050350375 0.080209069 -0.0044240025
-0.04786082 0.080293909 -0.0039980831
-0.04558973 0.080596551 -0.0035102549
-0.042728256 0.081180193 -0.0033452483
-0.041148409 0.081516251 -0.0033289716
0.036234409 0.083267085 -0.0025196122
0.03802301 0.082873449 -0.0025004465
0.040528782 0.08251559 -0.0024738892
0.043221451 0.082459874 -0.0025402645
0.045684014 0.082456179 -0.0030667447
0.047743682 0.082102835 -0.0033501205
-0.052232083 0.082809828 -0.0044465177
-0.050554872 0.082243375 -0.0044283131
-0.047742821 0.08239831 -0.0043989648
-0.045310348 0.082808211 -0.0042579337
-0.042749766 0.082891211 -0.0040138471
-0.040202245 0.083380103 -0.0035968977
-0.037772954 0.083656117 -0.003295775
-0.035258621 0.084050007 -0.003269851
0.030617021 0.085553646 -0.0025808306
0.032770962 0.08509919 -0.0025577734
0.035374153 0.084932953 -0.0028461637
0.037801862 0.084909596 -0.0026458323
0.040470347 0.085018978 -0.0026481634
0.042936146 0.084884256 -0.0029804821
0.045151338 0.08452668 -0.0034274568
-0.052206665 0.084475912 -0.0044479826
-0.051424604 0.084626503 -0.0044399239
-0.044716388 0.084513947 -0.0043695066
-0.042631522 0.084794991 -0.0043478799
-0.040004916 0.085233249 -0.0042263758
-0.037641838 0.085496895 -0.0040087299
-0.034973074 0.085700557 -0.0036907622
-0.032444887 0.086094707 -0.003291667
-0.029887587 0.086560048 -0.0032160548
-0.02803598 0.086927004 -0.0031970504
0.023301145 0.088385239 -0.00266041
0.02408674 0.088403814 -0.0026521944
0.027861232 0.087864205 -0.0026120779
0.029912254 0.087319896 -0.0030204367
0.032679167 0.087366231 -0.0027859076
0.034867115 0.087086581 -0.0034057226
0.037889831 0.086725883 -0.0033629101
0.040105574 0.086630635 -0.003095373
0.041951049 0.086458601 -0.0034630061
-0.037157714 0.087247767 -0.0042930525
-0.034815654 0.088034108 -0.0042691864
-0.032325238 0.088328511 -0.0041474723
-0.029924313 0.088465817 -0.0035617433
-0.027363908 0.088784389 -0.003615015
-0.024499303 0.089303911 -0.0034232801
-0.022144224 0.089381769 -0.003137799
-0.020487154 0.089760646 -0.0031208161
-0.016114635 0.089890227 -0.0030751145
-0.014321866 0.089829177 -0.0030563194
-0.011526978 0.089956351 -0.0030271227
-0.0095616691 0.089997977 -0.0030065496
0.022583608 0.090161383 -0.002669716
0.024845477 0.089948468 -0.0027445445
0.027246244 0.089841053 -0.0026205883
0.029966922 0.089884192 -0.0032320349
0.032660447 0.08905483 -0.0035630153
0.034278423 0.088988774 -0.0035460324
-0.03149844 0.090040997 -0.0042365836
-0.029753331 0.09033256 -0.0042185886
-0.027282357 0.090876885 -0.0041931239
-0.024518304 0.090936445 -0.0040716249
-0.022096502 0.091174953 -0.0038479883
-0.019572094 0.091533214 -0.0035156717
-0.016920958 0.091623694 -0.0032746522
-0.014358543 0.091558494 -0.0033539322
-0.011663105 0.091548122 -0.0036115323
-0.0091329478 0.091641545 -0.0034091135
-0.0066147032 0.092028864 -0.0030169552
-0.0037467023 0.091993935 -0.0029476343
-0.0014236118 0.092120394 -0.0029233824
0.00021753204 0.092618845 -0.0029067185
0.02040959 0.093354002 -0.0036958386
0.022396993 0.092557363 -0.0030263283
0.024474634 0.092051707 -0.0033969244
0.027257742 0.091931127 -0.0028783507
0.029972192 0.092551112 -0.0029105856
0.031484772 0.092468627 -0.0035788559
-0.021239048 0.092786528 -0.0041318461
-0.01960613 0.092971131 -0.0041149328
-0.016657382 0.093323573 -0.004084324
-0.014437009 0.093522333 -0.0040612072
-0.011665509 0.093348078 -0.0040320074
-0.0089958562 0.09381298 -0.0040044542
-0.0064501846 0.094037876 -0.0036313641
-0.0039387792 0.094252966 -0.0030108776
-0.001326649 0.094355747 -0.0033665681
0.00050255447 0.094454646 -0.0037270186
0.02025087 0.093892559 -0.0036980673
0.021954034 0.094193526 -0.003680462
0.02363079 0.093847319 -0.0036625918
0.030150663 0.094258934 -0.0031872189
-0.0058608954 0.09589643 -0.0039738398
-0.0040001972 0.096280664 -0.0037440583
-0.0018669276 0.096027531 -0.0038866268
0.00027688756 0.095798187 -0.0039093867
-0.0041868063 -0.091886669 -0.0017643425
-0.017350215 -0.089878276 -0.0018455138
-0.015180783 -0.090814926 -0.0018806346
-0.012704662 -0.090964533 -0.0018545412
-0.0089684725 -0.090103798 -0.0018162865
-0.0074684299 -0.089711957 -0.0012175799
-0.0048686648 -0.090222172 -0.0015950222
-0.0027380926 -0.089680009 -0.0017513662
-0.0306227 -0.08743833 -0.0020459502
-0.028166978 -0.087760054 -0.0020198948
-0.025562376 -0.087817915 -0.0019016018
-0.023264632 -0.087734364 -0.0019685184
-0.020318024 -0.087562419 -0.001937807
-0.017925162 -0.08815217 -0.001353506
-0.016501147 -0.087811597 -0.00089753018
-0.011614562 -0.086760044 -0.00051402434
-0.009870789 -0.087217085 -0.00069530815
-0.0074679181 -0.087765768 -0.0002534966
-0.0048086261 -0.087633677 -0.00050639035
-0.0025598248 -0.087771975 -0.00091009535
0.022034222 -0.085947931 -0.00049549551
0.023789272 -0.086807072 -0.00090866175
0.025407389 -0.086163305 -0.00085994601
0.031844649 -0.085663065 -0.0013930083
-0.037983626 -0.084961548 -0.0021256544
-0.035992041 -0.085228175 -0.0021044908
-0.033497788 -0.085385405 -0.0020781846
-0.03099392 -0.085670285 -0.0019211954
-0.028501522 -0.085643649 -0.0016029582
-0.025714142 -0.085661665 -0.0010234956
-0.023088468 -0.085534744 -0.0010552035
-0.020536983 -0.085473567 -0.001079545
-0.018091761 -0.085611179 -0.00071634725
-0.015323121 -0.085488617 9.6050979e-05
-0.012693175 -0.08523947 0.000121889
-0.010262804 -0.085376263 2.0450214e-05
-0.0076818122 -0.085264303 0.00019229745
-0.0049790558 -0.085229263 0.00019356048
-0.0023992606 -0.085048243 0.00024744988
-0.00059533562 -0.0843345 0.00026571946
0.0063236058 -0.083816379 0.00033770155
0.0085363863 -0.083900832 0.00036099768
0.010395287 -0.083959445 0.00038054306
0.014068973 -0.084445529 0.00041948858
0.015956577 -0.084534295 0.00043933582
0.018305635 -0.084125713 0.00046355685
0.021069152 -0.08438132 0.00013075703
0.023581659 -0.084406093 -0.00015193321
0.026127866 -0.084440775 -0.00053395436
0.028265774 -0.083775684 -0.00060887786
0.031525381 -0.084185481 -0.0013978196
0.033799198 -0.083618984 -0.0013745636
0.035922784 -0.083302066 -0.0013526272
-0.041125298 -0.08286716 -0.0021607107
-0.038769435 -0.083322227 -0.0021355511
-0.036075123 -0.083393604 -0.0017261471
-0.03356304 -0.083347321 -0.0010807739
-0.031097744 -0.083222009 -0.00086581969
-0.028503926 -0.083124615 -0.00070857606
-0.025931334 -0.083219022 -0.00023710598
-0.023208959 -0.083078608 2.7304952e-05
-0.020498266 -0.083014525 5.5653712e-05
-0.017932672 -0.083008789 8.2541141e-05
-0.015308785 -0.083075017 0.00011011309
-0.012928449 -0.082955912 0.00013494275
-0.010226096 -0.083163291 0.00016348138
-0.0078398958 -0.083193913 0.00018854038
-0.004973921 -0.082963467 0.00021833199
-0.0023766339 -0.083334759 0.00024595167
-7.218658e-05 -0.083217695 0.00027000284
0.0058202506 -0.082405254 0.0003309242
0.0078463154 -0.082399338 0.00035214101
0.0098556848 -0.082677372 0.00037350267
0.014183429 -0.082429245 0.00041864364
0.015856858 -0.082155034 0.00043586019
0.018408081 -0.082094721 0.00046254118
0.020959275 -0.082034409 0.00048922189
0.023510501 -0.081974089 0.00051590294
0.026091961 -0.081903882 0.00012192456
0.028742358 -0.081782818 -0.00037863274
0.031426068 -0.081762984 -0.00086779945
0.033977881 -0.081613511 -0.0010233205
0.036423989 -0.081541657 -0.0013179074
0.039022136 -0.08095853 -0.0013225329
0.041362111 -0.080601022 -0.0012983698
-0.048307169 -0.080053292 -0.002238912
-0.046550985 -0.080572858 -0.002219928
-0.044009939 -0.080633707 -0.0020332122
-0.04140839 -0.080898054 -0.001551534
-0.038773242 -0.080983408 -0.0014711758
-0.036219284 -0.080757327 -0.00093558349
-0.033670418 -0.080801837 -0.00018912868
-0.031082395 -0.080711991 -5.7644094e-05
-0.028531156 -0.080651678 -3.0962925e-05
-0.026131179 -0.080696456 -5.7599391e-06
-0.02320293 -0.081223719 2.5488291e-05
-0.021544551 -0.081496969 4.3195672e-05
-0.014472998 -0.08143615 0.00011727445
-0.013835189 -0.08142107 0.00012394473
0.0062557859 -0.080946088 0.00033405866
0.016122431 -0.08064191 0.00043718773
0.018591262 -0.080282182 0.00046263961
0.020959089 -0.079550795 0.00048668293
0.023450211 -0.079422757 0.00051266479
0.026001502 -0.079362437 0.00053934648
0.02875418 -0.079315297 0.0001947834
0.031400949 -0.079216845 -0.00040400788
0.03393973 -0.079156831 -0.00037745695
0.036442306 -0.079126514 -0.00079289044
0.039103892 -0.078989148 -0.0010071397
0.041691039 -0.078827746 -0.0011439283
0.044178765 -0.078451358 -0.0012710557
0.046352424 -0.077841721 -0.0012488934
-0.051217571 -0.077602968 -0.0022718781
-0.0491357 -0.078318223 -0.0022493247
-0.046663221 -0.078335598 -0.002025998
-0.044206608 -0.078370884 -0.00086821138
-0.041664608 -0.078347668 -0.00035848166
-0.038956329 -0.078153506 -0.0001427794
-0.036264215 -0.078140147 -0.00011458842
-0.033916797 -0.078475937 -8.9639128e-05
-0.030834315 -0.07905741 -5.6689052e-05
-0.028679537 -0.078873523 -3.4304801e-05
-0.026748823 -0.079109751 -1.3780547e-05
0.021821812 -0.078025281 0.00049424241
0.023757432 -0.077107869 0.0005135354
0.025937419 -0.076651625 0.00053590571
0.02871784 -0.076643735 0.00047311242
0.03136776 -0.076576941 0.00028909394
0.033747371 -0.076619849 2.6339025e-05
0.03648812 -0.076410167 0.00010890362
0.038900837 -0.076286077 -0.00027573697
0.041686039 -0.076333664 -0.00034615761
0.044308305 -0.076256081 -0.00069044973
0.046730205 -0.076038428 -0.0011313298
0.049084619 -0.075414762 -0.001222718
-0.053773083 -0.074942403 -0.0023014131
-0.051848281 -0.075696558 -0.0021947203
-0.049309406 -0.075754136 -0.0016702625
-0.046737753 -0.075812854 -0.0013266233
-0.044310231 -0.075605519 -0.00032270106
-0.041798122 -0.075540558 -0.00017525186
-0.03916068 -0.075956903 -0.00014718014
-0.036944203 -0.076223604 -0.00012361439
0.023895413 -0.074067302 0.00051189074
0.02576758 -0.074438691 0.00053187978
0.028778434 -0.073999688 0.00056297705
0.0312379 -0.073883057 0.00058863871
0.033842936 -0.073734023 0.00061579316
0.03639726 -0.073691949 0.00064252532
0.038938068 -0.073721372 0.00046093354
0.041597739 -0.073655762 0.00031439273
0.044156495 -0.073421843 -0.00013924122
0.046870667 -0.073528849 -0.00032014356
0.049388435 -0.073364615 -0.00088041683
0.051961884 -0.072910234 -0.0011951311
0.05427869 -0.072589405 -0.0011711585
-0.056131184 -0.073207565 -0.0023279185
-0.054595262 -0.073230542 -0.0022221743
-0.052153982 -0.073595166 -0.0017524009
-0.049435716 -0.073273242 -0.00043813503
-0.046894222 -0.073090784 -0.00024704362
-0.04436316 -0.073066138 -0.00020466684
-0.042262461 -0.073444426 -0.00018224545
0.029146986 -0.071919747 0.00056474551
0.03051422 -0.072288722 0.00057951373
0.034294941 -0.071339265 0.00061809988
0.03624434 -0.071441911 0.00063862395
0.038995612 -0.071354479 0.00066737423
0.041439407 -0.07101991 0.00069264905
0.04411909 -0.071041621 0.00048705249
0.046637464 -0.070807047 -0.00010420798
0.049347956 -0.070904307 -0.00026915403
0.051915321 -0.070908181 -0.00050124968
0.054408908 -0.070636056 -0.00092852884
0.056500882 -0.069987148 -0.0011505231
-0.061579879 -0.069939516 -0.0023883714
-0.060082018 -0.070035763 -0.0023725275
-0.056876574 -0.070368521 -0.0022476851
-0.054677665 -0.070789061 -0.0014384241
-0.052080929 -0.070690945 -0.00039402055
-0.049557108 -0.070668139 -0.00026156081
-0.047132466 -0.071126796 -0.00023566163
-0.045126393 -0.071524173 -0.000214153
0.041846268 -0.068983451 0.00069484854
0.043930322 -0.068408266 0.00071609172
0.046677671 -0.068417624 0.00068000163
0.049399953 -0.0681246 0.00030448355
0.051832728 -0.068152048 4.539956e-05
0.054516405 -0.068190187 -0.00045539136
0.056912787 -0.068121769 -0.0011147751
0.058573242 -0.067581676 -0.0011312722
-0.064241141 -0.067632534 -0.002418624
-0.062376808 -0.068230078 -0.0023339158
-0.059900232 -0.06828934 -0.0021917638
-0.057343587 -0.068269022 -0.0013834953
-0.054778706 -0.068295933 -0.00054083235
-0.052214481 -0.068405248 -0.00029172763
-0.050467853 -0.068845034 -0.00027288037
0.044303924 -0.065892227 0.00071745267
0.046580713 -0.065792829 0.00074120215
0.049291413 -0.065728739 0.00076955103
0.051842641 -0.065668434 0.00079623202
0.054425985 -0.065637074 0.0002420423
0.057057511 -0.065598972 -0.00063621468
0.059081808 -0.065214835 -0.0010770662
-0.066966839 -0.064826764 -0.0024500468
-0.065123767 -0.065538384 -0.0024299705
-0.062708206 -0.065769404 -0.001769023
-0.060124494 -0.065759629 -0.001215403
-0.057417244 -0.065770231 -0.00049960025
-0.054819375 -0.065699473 -0.0003217968
0.044470195 -0.064247206 0.00071758975
0.046539318 -0.064038724 0.00073899131
0.04947973 -0.06342119 0.00076916791
0.05178237 -0.063117005 0.00079299405
0.054445267 -0.06313809 0.00072238198
0.056912161 -0.062892847 8.7265857e-05
0.059419118 -0.062904701 -0.00030092738
0.062320679 -0.062534004 -0.00082438055
0.064655013 -0.06222453 -0.0010729787
0.066319883 -0.06171779 -0.0010560744
-0.069450103 -0.062252242 -0.0024787218
-0.067702785 -0.063047379 -0.0024595489
-0.065274514 -0.063093491 -0.0020873384
-0.062906347 -0.063297175 -0.0014089588
-0.060275074 -0.063141204 -0.00041491902
-0.057594277 -0.06322705 -0.00035340962
-0.05529448 -0.063872151 -0.00032859886
0.052432638 -0.060814779 0.00079748849
