# .PCD v0.7 - Point Cloud Data file format
VERSION 0.7
FIELDS x y z
SIZE 4 4 4
TYPE F F F
COUNT 1 1 1
WIDTH 1049
HEIGHT 1
VIEWPOINT 0 0 0 1 0 0 0
POINTS 1049
DATA ascii
-0.072062716 -0.0086711738 -0.0096367784
-0.071641557 -0.010385672 -0.0096263345
-0.071628712 -0.012895333 -0.0096074231
-0.063894846 -0.035387158 -0.0094848163
-0.063121527 -0.036670987 -0.0094798822
-0.060819175 -0.040084887 -0.0094683245
-0.061020743 -0.041026339 -0.0094599193
-0.059506133 -0.040262241 -0.0094751967
-0.059675194 -0.042186346 -0.0094595831
0.032141007 -0.065768816 -0.0098550441
0.031642672 -0.066494189 -0.0098464089
0.035537377 -0.064002283 -0.0098897386
0.033897795 -0.065066852 -0.0098713208
0.032274164 -0.066279128 -0.0098519968
0.047474034 -0.055437662 -0.010029591
0.046291653 -0.0567027 -0.010012555
-0.070746392 0.012465192 -0.0088056754
-0.071322821 0.010797394 -0.0087893857
-0.06005859 0.037162185 -0.0090602776
-0.061384533 0.034521982 -0.0088320235
-0.062507391 0.031730048 -0.0084187752
-0.06339398 0.028784018 -0.0081567457
-0.064495005 0.025939953 -0.0077991206
-0.065409325 0.023154646 -0.0078572044
-0.066342153 0.020329775 -0.0079476396
-0.067352787 0.017520882 -0.0079725897
-0.06843242 0.014706276 -0.0081118373
-0.069351345 0.011892429 -0.0082753887
-0.070224389 0.0090470565 -0.008380902
-0.070963867 0.0062010773 -0.0086602103
-0.071565613 0.0033278242 -0.0087309824
-0.072337598 5.8270991e-05 -0.0087013049
-0.073182784 -0.0023777578 -0.0086774919
-0.073442727 -0.004339708 -0.0086610215
-0.053334631 0.046442814 -0.0083396398
-0.054661434 0.044842839 -0.0086146574
-0.055729784 0.041970722 -0.0084111225
-0.056752637 0.039163083 -0.0081709893
-0.057738535 0.036387026 -0.0079313582
-0.058943976 0.03376957 -0.0075684395
-0.060448494 0.031202359 -0.0072532953
-0.061660334 0.028265495 -0.0069826087
-0.062631205 0.025456415 -0.0069551719
-0.06360209 0.022647345 -0.0069277352
-0.064572953 0.01983827 -0.0069002993
-0.065499254 0.016699672 -0.0068928543
-0.066430211 0.01390679 -0.0070102499
-0.06727647 0.011038505 -0.0069904453
-0.068134122 0.0081356978 -0.007184179
-0.068767041 0.005150618 -0.0073724044
-0.069511153 0.0023190528 -0.0076580085
-0.070360146 -0.00053600594 -0.008123151
-0.071273074 -0.0033102799 -0.0085724723
-0.072048478 -0.0060269404 -0.0086568333
-0.071997754 -0.0082620773 -0.0086402455
-0.048053812 0.051121548 -0.0082415966
-0.049016774 0.049099449 -0.0082201781
-0.050658483 0.046551634 -0.0081009688
-0.052027989 0.044081002 -0.0075203618
-0.05361516 0.041555323 -0.0071340236
-0.055183329 0.038733974 -0.0071027544
-0.056122378 0.036099724 -0.0070768464
-0.067795046 0.0012349524 -0.0067386804
-0.06812492 -0.0014039353 -0.0069804927
-0.068664484 -0.0042815767 -0.0073806834
-0.069611624 -0.007061474 -0.0076380949
-0.070234559 -0.009815298 -0.0081444643
-0.070467874 -0.012670096 -0.008513649
-0.070957541 -0.015156293 -0.0085943397
-0.04492937 0.053926174 -0.0090982728
-0.046279967 0.051558733 -0.0084720748
-0.047164544 0.048771702 -0.0078144893
-0.048710652 0.046422847 -0.0072642369
-0.049966283 0.044585072 -0.0071798894
-0.067327969 -0.0055722296 -0.0066898479
-0.067482606 -0.0081516597 -0.0066692671
-0.067902438 -0.010859916 -0.0069347564
-0.068756126 -0.0137926 -0.007562438
-0.0696311 -0.016682507 -0.0080170343
-0.06956888 -0.019266073 -0.0083717136
-0.041362859 0.055980526 -0.0087184915
-0.042445388 0.054174904 -0.0085856095
-0.044433765 0.05009637 -0.0072564464
-0.045178093 0.049203604 -0.0072449832
-0.066620663 -0.012472918 -0.0066417931
-0.066520788 -0.014827535 -0.0066417716
-0.066847757 -0.017536601 -0.0072153662
-0.067933939 -0.020482674 -0.0078293765
-0.037505046 0.057931073 -0.0080023361
-0.038820241 0.055674735 -0.0076038633
-0.040400609 0.053988311 -0.0073112585
-0.065235488 -0.01869344 -0.0066031837
-0.065442905 -0.021543877 -0.0069731604
-0.065913253 -0.02428476 -0.007539371
-0.033701606 0.059877992 -0.0079146437
-0.034764621 0.057329338 -0.0073719765
-0.036260486 0.055806734 -0.0073510199
-0.064164683 -0.025239628 -0.0068293479
-0.064572886 -0.028170967 -0.008390124
-0.065022781 -0.030885076 -0.0085120238
-0.029924229 0.061701175 -0.0079055866
-0.031235034 0.059303027 -0.0074266354
-0.032620922 0.057693355 -0.0073881503
-0.062794387 -0.029802548 -0.0085340878
-0.062403347 -0.031935461 -0.0077489968
-0.062996119 -0.034527075 -0.008366392
-0.06281627 -0.037068672 -0.0084787039
-0.026118401 0.063577674 -0.0079106437
-0.027252965 0.061217505 -0.007448568
-0.060904354 -0.033241741 -0.0075197057
-0.060718022 -0.035769381 -0.0076845298
-0.061188966 -0.038293552 -0.0082757659
-0.061397254 -0.040415905 -0.0084621385
-0.022136793 0.065190442 -0.008434887
-0.023739973 0.063008212 -0.0076393806
-0.058200434 -0.036869649 -0.0065412922
-0.059596915 -0.038825572 -0.0081729488
-0.058568373 -0.043295357 -0.0084579261
-0.019856164 0.065340221 -0.0085262293
-0.056967609 -0.044124372 -0.0084616002
-0.057148442 -0.045590229 -0.0084493076
-0.015619835 0.066527389 -0.007872954
-0.054337382 -0.045246247 -0.0077422811
-0.054676764 -0.047107715 -0.0079009505
-0.011850365 0.06816633 -0.0081579359
-0.012756059 0.06622909 -0.0075774342
-0.051414251 -0.045936801 -0.0064825765
-0.052067079 -0.048071478 -0.0070271296
-0.0090648383 0.067382105 -0.0076731653
-0.010327091 0.065885365 -0.007590028
-0.048577704 -0.047118127 -0.0064913537
-0.049210832 -0.048994005 -0.0064731268
-0.0052662883 0.069063403 -0.0080359029
-0.0064988788 0.067357369 -0.0076251873
-0.047129933 -0.050444644 -0.0066033411
-0.0023066942 0.068535849 -0.0076603936
-0.045354418 -0.051880278 -0.0074753612
1.9377097e-05 0.068423644 -0.0076741041
-0.042038973 -0.055457842 -0.0075060083
-0.039985172 -0.056775019 -0.0074717454
-0.037440188 -0.060302991 -0.0080674514
0.010119644 0.067605369 -0.0077311173
-0.034262136 -0.061791163 -0.0080694314
0.013080427 0.066595279 -0.0077419742
-0.031260561 -0.061919708 -0.0070620417
0.016635308 0.067454003 -0.0077707595
0.015793823 0.065821357 -0.0077530779
-0.028784899 -0.063211918 -0.006812402
-0.029444477 -0.065390795 -0.007988953
0.019405399 0.066771477 -0.0077829133
0.018761005 0.064788491 -0.0077638016
-0.025892358 -0.064122595 -0.0069272304
-0.026578665 -0.066358447 -0.0079591386
0.022323454 0.065959297 -0.0078334836
0.021644991 0.063840143 -0.0077746469
-0.022877878 -0.065283276 -0.0068020588
-0.023713157 -0.067408204 -0.0078342948
0.024117075 0.06243293 -0.0077794245
-0.020470146 -0.066090941 -0.007137164
-0.020870354 -0.068359055 -0.0081256302
0.027863665 0.06370271 -0.0079986304
0.026969869 0.061797805 -0.0077924565
-0.017759833 -0.067759521 -0.0083845919
-0.01792299 -0.06937544 -0.0084380284
0.030372087 0.060801502 -0.0078061814
-0.014366689 -0.068629645 -0.0078314571
-0.015239343 -0.070220135 -0.0084085604
0.032924633 0.059497423 -0.0078122471
-0.012067781 -0.069502257 -0.0077719637
-0.012342732 -0.071199119 -0.0084202802
0.035823587 0.058651816 -0.0078239674
-0.0068533802 -0.067658529 -0.0065964051
-0.008334537 -0.06985987 -0.0077565257
-0.0096502472 -0.072273381 -0.0085340431
0.038546406 0.057302501 -0.0078522582
0.038878813 0.054952279 -0.0078149671
-0.005723903 -0.06816148 -0.0066522853
-0.0057362225 -0.070429303 -0.0078486791
-0.0068778414 -0.072835155 -0.0085568884
0.041278291 0.056224249 -0.0078979116
0.040575475 0.054193038 -0.0078198165
-0.0011163 -0.069947809 -0.0076149376
-0.0028493702 -0.071569197 -0.0079988502
0.043784007 0.054885779 -0.0081742052
0.043450858 0.05294228 -0.0078283092
0.0024619456 -0.068270214 -0.0066500455
0.001016954 -0.069842637 -0.0070072226
0.046536393 0.05355911 -0.0078948764
0.045951121 0.051502034 -0.0078330114
0.045917887 0.049728278 -0.0078193173
0.048895016 0.05242788 -0.0078584673
0.048682034 0.050488107 -0.0078424001
0.049034264 0.048205581 -0.0078272512
0.051127829 0.049014635 -0.0079940679
0.05070867 0.046808615 -0.0078382296
0.050931193 0.044671029 -0.0078122527
0.052949581 0.045651875 -0.0084071569
0.052715234 0.043213174 -0.0078123379
0.05536516 0.041825175 -0.0080987234
0.055377498 0.039338063 -0.007799542
0.057727709 0.040542353 -0.0086477539
0.057320513 0.037999231 -0.0079959668
0.057424821 0.035642952 -0.0077842651
0.059805293 0.0368274 -0.008596736
0.059345417 0.034210645 -0.0078543648
0.059517741 0.031819776 -0.0077682999
0.025173362 -0.065385789 -0.0068642227
0.061715133 0.033156119 -0.0085356273
0.061136156 0.030356109 -0.0078999447
0.06079052 0.027493346 -0.007743373
0.028855829 -0.064057156 -0.0069698174
0.027596377 -0.066179812 -0.0076085986
0.063505597 0.029420471 -0.0087071517
0.062709004 0.026570773 -0.0082013411
0.062474221 0.024551395 -0.0077315457
0.034131359 -0.060349002 -0.006908562
0.032704413 -0.062142953 -0.0071879453
0.031357378 -0.064255416 -0.0078465678
0.030107079 -0.0667108 -0.0085662827
0.065318391 0.025512313 -0.0086906934
0.06480407 0.022738673 -0.0080334572
0.064598195 0.019818155 -0.0077088554
0.06427075 0.017755436 -0.0076911068
0.037714679 -0.057457052 -0.0069529992
0.036262311 -0.059748083 -0.0073971185
0.035124507 -0.062274057 -0.0082387654
0.033868395 -0.064365625 -0.0087069236
0.067089312 0.024015021 -0.0087563666
0.067169189 0.021571754 -0.0087384097
0.066295646 0.018930601 -0.0085040834
0.065255955 0.016966481 -0.0076912912
0.042807922 -0.053442426 -0.0070153968
0.041247681 -0.055517595 -0.0070543904
0.039959561 -0.057796143 -0.0074450467
0.03888635 -0.060484547 -0.0083280047
0.037733186 -0.062937811 -0.0088981027
0.036390923 -0.064522363 -0.0088910777
0.068811342 0.017766483 -0.0091764862
0.068495721 0.014816118 -0.0085703684
0.067627788 0.012261607 -0.0079751862
0.067004532 0.0094726142 -0.0076969848
0.066581517 0.0070929304 -0.0076245191
0.046297438 -0.050811522 -0.0071322778
0.044899739 -0.05304794 -0.0075077116
0.04368756 -0.055856153 -0.007937273
0.042636462 -0.058573842 -0.0086177634
0.041032534 -0.060147904 -0.008799552
0.069773719 0.014214423 -0.0086986721
0.069528408 0.010851083 -0.0086715482
0.069138169 0.0085010733 -0.0085481321
0.068239942 0.0057162233 -0.0080517754
0.067849845 0.0029760413 -0.0076193386
0.067503974 -0.00018612109 -0.0075749499
0.052316863 -0.043502018 -0.0071505243
0.051172048 -0.045799945 -0.0071667158
0.049844593 -0.048461884 -0.0074275006
0.048583809 -0.051059239 -0.007814087
0.047631972 -0.053969547 -0.0085702566
0.045928329 -0.056346387 -0.0089765033
0.04463448 -0.05869922 -0.0089869341
0.070632525 0.0046855826 -0.0088146683
0.069946915 0.0017889086 -0.0085499659
0.068921246 -0.0011390392 -0.0081349509
0.068138048 -0.0039663669 -0.0079699187
0.06754043 -0.0067942785 -0.0077056792
0.066878684 -0.0096942568 -0.0074987421
0.06627126 -0.012548333 -0.0074732387
0.065313093 -0.015623855 -0.007443856
0.064779118 -0.017168848 -0.0074287509
0.059031829 -0.0333427 -0.007269809
0.058024008 -0.035543766 -0.0072467644
0.056881279 -0.0383748 -0.0073252739
0.055623699 -0.040990666 -0.0074203769
0.054320753 -0.043601006 -0.0075977803
0.053246871 -0.046351023 -0.0079457648
0.052362882 -0.049180634 -0.0085998066
0.051032271 -0.051676691 -0.0089218421
0.049774215 -0.053891063 -0.0090556554
0.070579231 -0.0049164928 -0.0088083558
0.069835134 -0.0077698184 -0.0087981848
0.068939373 -0.01052123 -0.0083830478
0.067979738 -0.013334881 -0.0079214498
0.067025155 -0.016229788 -0.0077345041
0.066101216 -0.019058472 -0.0076835626
0.065187931 -0.021919498 -0.0076679536
0.06418398 -0.024715666 -0.0077190157
0.06302654 -0.027591435 -0.0077451002
0.062006049 -0.030442681 -0.0077271359
0.061016046 -0.033228114 -0.0077499044
0.059980787 -0.036127709 -0.008035643
0.058973953 -0.038875885 -0.0083219791
0.057965733 -0.041669272 -0.0083600413
0.056583144 -0.044159971 -0.008245063
-0.056799337 0.03470609 -0.0060619614
-0.05783746 0.032752614 -0.0060406388
-0.059207112 0.030390779 -0.0059172139
-0.060370594 0.027786436 -0.0056451261
-0.061343584 0.02497297 -0.0055844565
-0.062321451 0.022143677 -0.0055567631
-0.06329935 0.019314399 -0.0055291438
-0.064112477 0.016471267 -0.0056033954
-0.064939886 0.013494537 -0.0056857378
-0.06577494 0.01067149 -0.0058229808
-0.066629715 0.0078433929 -0.0057962011
-0.067326374 0.0050921775 -0.0057709208
-0.067730114 0.0030797366 -0.0057530627
-0.051134795 0.042863712 -0.0061594802
-0.052590027 0.040649079 -0.0060565029
-0.053905699 0.038216688 -0.0057837865
-0.054805681 0.035422925 -0.0053627999
-0.055803224 0.032651521 -0.0048951167
-0.056948256 0.029952561 -0.0045701643
-0.058090027 0.027081132 -0.0045392467
-0.05898856 0.024214387 -0.0043382626
-0.060090717 0.021418404 -0.0040783794
-0.061260428 0.018615188 -0.0040966235
-0.062225159 0.015770458 -0.004258879
-0.063090801 0.012804527 -0.0042491928
-0.063734949 0.0099401707 -0.0044818548
-0.064637184 0.0071018953 -0.0047392226
-0.065608591 0.0042604227 -0.0048466069
-0.06641306 0.001508927 -0.0053236922
-0.066726506 -0.0014701616 -0.0056812828
-0.06715861 -0.0039142389 -0.0057034483
-0.046186589 0.047682278 -0.0062270667
-0.047651399 0.045531482 -0.0060563087
-0.049033701 0.043033764 -0.005321763
-0.050077282 0.040274676 -0.0046788785
-0.051505011 0.037696283 -0.0044466411
-0.052838642 0.035035741 -0.0041417079
-0.053990338 0.032338507 -0.0040614451
-0.054793913 0.030548535 -0.0040428047
-0.062186331 0.0088043679 -0.0038311956
-0.06294775 0.0062174825 -0.0038067149
-0.063518763 0.003142437 -0.0037796551
-0.064069115 0.00045663677 -0.0039949641
-0.064781703 -0.0023047104 -0.0044337455
-0.065626517 -0.005145805 -0.0052126297
-0.066173874 -0.0079036336 -0.0055747149
-0.066456676 -0.010842659 -0.0056552095
-0.041447245 0.051685482 -0.0062871762
-0.042821325 0.049895801 -0.0060982881
-0.044261537 0.047669582 -0.0053143604
-0.045732498 0.045172051 -0.0047106952
-0.046992794 0.042661898 -0.0042362907
-0.04806957 0.040498525 -0.0041605565
-0.06328243 -0.0033687912 -0.0037317772
-0.063401081 -0.0064100362 -0.0037960107
-0.063868955 -0.0089637227 -0.0042324495
-0.064898193 -0.011815725 -0.0051203254
-0.065281048 -0.0144582 -0.0056032189
-0.065114319 -0.016791219 -0.0056183552
-0.037788264 0.05350022 -0.005323831
-0.039418042 0.051840831 -0.0054548732
-0.040609859 0.049532905 -0.0047711553
-0.041965835 0.047692053 -0.0042534648
-0.06156452 -0.0077555459 -0.0037091791
-0.061879028 -0.0098422095 -0.0037156197
-0.062458053 -0.012766076 -0.0039757458
-0.063003287 -0.015653063 -0.004362687
-0.063821673 -0.018398767 -0.0050716326
-0.06410674 -0.021211829 -0.0054823724
-0.064193591 -0.023273677 -0.0055748317
-0.033626109 0.056428265 -0.0063721878
-0.035637923 0.053359911 -0.0048546433
-0.036893979 0.051635787 -0.0044560865
-0.038478531 0.049567126 -0.0042895549
-0.060988653 -0.016871355 -0.00364337
-0.061272401 -0.019484295 -0.0039910553
-0.062119432 -0.022272343 -0.0046470305
-0.062769122 -0.024746493 -0.0052536512
-0.030393537 0.058255911 -0.0061771912
-0.031875107 0.055986568 -0.0053704432
-0.033123247 0.053635024 -0.0044358382
-0.034604296 0.051996961 -0.0043322849
-0.059538957 -0.020741405 -0.0036231256
-0.060171679 -0.023264272 -0.0037488523
-0.06083104 -0.025900353 -0.0045162542
-0.060501032 -0.029104088 -0.0052202647
-0.026803279 0.05999051 -0.0063143391
-0.028128017 0.057856858 -0.0054351548
-0.029107437 0.055531658 -0.0044830013
-0.058745585 -0.030588571 -0.0045224852
-0.058790475 -0.031987388 -0.0045950343
-0.023230519 0.061253872 -0.0060572908
-0.024306256 0.059700139 -0.00557133
-0.025427029 0.057276752 -0.0046215532
-0.026736163 0.055585545 -0.0044088303
-0.054571126 -0.029417086 -0.0035882641
-0.055389903 -0.031006947 -0.0035708712
-0.056441709 -0.033485129 -0.0041502663
-0.05690641 -0.036869679 -0.005517066
-0.020242229 0.060737133 -0.0046476899
-0.021501582 0.059148945 -0.0046396209
-0.023086106 0.057597782 -0.0044469824
-0.053272612 -0.031977791 -0.0039210981
-0.053960528 -0.034757614 -0.004573036
-0.054728955 -0.037572827 -0.0053287959
-0.054632857 -0.039697103 -0.0055098021
-0.014702141 0.065042913 -0.0065561808
-0.01553322 0.062697455 -0.0058664489
-0.017849373 0.060160398 -0.0045191166
-0.018804034 0.059205242 -0.0044860132
-0.052644841 -0.036374565 -0.0045474754
-0.052188396 -0.03885939 -0.0049920427
-0.052466676 -0.041240096 -0.0054411162
-0.052276667 -0.04367267 -0.0054943413
-0.012888236 0.06471283 -0.006428571
-0.013952708 0.062585093 -0.0057173362
-0.015296023 0.060905833 -0.0055209715
-0.051351279 -0.041888863 -0.0052636741
-0.052029364 -0.044645693 -0.0054884916
-0.0079808757 0.066196896 -0.0066070352
-0.010989867 0.064240478 -0.0062049464
-0.011771582 0.06252034 -0.0055552833
-0.046303324 -0.043432813 -0.0035333871
-0.047339335 -0.047497261 -0.0054961732
-0.0045662466 0.067387447 -0.0066374652
-0.0060987007 0.066141345 -0.0066182776
-0.045160256 -0.044460066 -0.0036414124
-0.046616599 -0.047331549 -0.0053019449
-0.047077134 -0.049032271 -0.0054861438
-0.0024551749 0.067165181 -0.0066490374
-0.0032488815 0.065836474 -0.0063164509
0.0019607618 0.06853833 -0.0066870651
0.00048360974 0.066871114 -0.0066220295
-0.00041596405 0.064825512 -0.0058158725
-0.039861619 -0.051586695 -0.0040534344
0.002607666 0.068174243 -0.0066883769
0.0023963638 0.066458449 -0.0066496581
0.0015228298 0.064706124 -0.0059408788
-0.037841514 -0.053124014 -0.0044744471
-0.037751533 -0.055006143 -0.0044990424
0.0070519187 0.063470043 -0.0046803178
0.0065299189 0.062883891 -0.0046725925
-0.035120513 -0.054003295 -0.0039756596
-0.035550933 -0.056112673 -0.0049211234
0.010862289 0.065757357 -0.0066550095
0.009135589 0.063664608 -0.0051645497
0.008094376 0.062447242 -0.0046790079
-0.032446079 -0.055268399 -0.0038515737
-0.032910869 -0.057598397 -0.0049116919
0.012503869 0.065189682 -0.0064912234
0.011742246 0.063145496 -0.005305049
0.011769588 0.061285697 -0.0046932455
-0.030348912 -0.059046976 -0.0054796962
-0.030402942 -0.060829781 -0.0055008521
0.015743226 0.064364776 -0.0066145672
0.01469736 0.062155023 -0.0051827668
0.01376074 0.06054005 -0.0047000125
-0.027437922 -0.06013114 -0.0050357222
-0.028044438 -0.062098239 -0.0055058994
0.018279703 0.063366823 -0.0066049178
0.017480256 0.061333548 -0.0054101851
0.016583091 0.059856109 -0.0047125123
-0.023645848 -0.059127253 -0.0035559852
-0.024650337 -0.060880762 -0.004512676
-0.025269521 -0.062931828 -0.0055169938
0.021228788 0.06261275 -0.0067625395
0.020063296 0.061666388 -0.006748151
-0.021271126 -0.060120005 -0.0035633044
-0.021840839 -0.061833508 -0.0043531102
-0.022447396 -0.063984849 -0.0054599256
0.022676766 0.061605994 -0.0067640692
-0.018579513 -0.061149955 -0.0035723255
-0.018996291 -0.062734105 -0.0042090323
-0.019828161 -0.064633243 -0.0051912088
0.027758956 0.060328219 -0.0067147776
0.026725968 0.057841208 -0.005005518
0.026560439 0.056300893 -0.0047479467
-0.015035344 -0.062284119 -0.0035858913
-0.016073873 -0.063640215 -0.0040942361
-0.017815428 -0.064778224 -0.0045495727
0.029558886 0.059600171 -0.0064931377
0.028910775 0.057242274 -0.0052697472
0.028446186 0.055595841 -0.0047543924
-0.013245314 -0.06261237 -0.0035946022
-0.013364807 -0.064388573 -0.0041209152
0.032681182 0.058111355 -0.0066262586
0.031740122 0.056273554 -0.0053063976
0.031155478 0.054539572 -0.0047632786
-0.010168589 -0.066026434 -0.0053380439
0.03527474 0.05735448 -0.0068106167
0.034463059 0.055324994 -0.0060572298
0.03370899 0.053617004 -0.0047722952
-0.0080150831 -0.067050472 -0.0055936603
-0.0081385849 -0.068254672 -0.0055837752
0.037453208 0.056340352 -0.0068165744
0.037249383 0.054320987 -0.0063046506
0.036606736 0.052327137 -0.0047805114
-0.0034838151 -0.065341629 -0.0037598582
-0.0038116537 -0.066837139 -0.0044549149
0.040800847 0.05328653 -0.0068142698
0.040061332 0.049771003 -0.0047828238
-0.001682831 -0.066075221 -0.0044816961
-0.002182968 -0.067148544 -0.0046294369
0.04263927 0.051792305 -0.0067323982
0.042069986 0.049542334 -0.0055131987
0.041659862 0.047548831 -0.0047758468
0.0018508714 -0.064943299 -0.0036713933
0.0019605551 -0.066837683 -0.0046577267
0.04465263 0.050604463 -0.0068179918
0.044791792 0.048801132 -0.0063833399
0.0433718 0.046633385 -0.0047796345
0.0035428312 -0.068363607 -0.0056560817
0.047957443 0.049232237 -0.0068282494
0.047815464 0.047658846 -0.0068152486
0.047753271 0.04471181 -0.0064488892
0.049534522 0.046020754 -0.0068137501
0.049457032 0.043689769 -0.0066046189
0.049247958 0.041957341 -0.0062809982
0.051691495 0.042413227 -0.0067998255
0.05115138 0.041270997 -0.0067877294
0.053916965 0.035612889 -0.0055011306
0.053544343 0.033631504 -0.0047445251
0.05596336 0.037385456 -0.0067883432
0.055969827 0.035054352 -0.0062927115
0.055224016 0.032288577 -0.0052213483
0.055042326 0.029993199 -0.004726151
0.022638438 -0.062237937 -0.0048221597
0.02186073 -0.063916557 -0.0048367754
0.058053486 0.033656403 -0.0067730905
0.057854168 0.031373531 -0.0063473061
0.057499442 0.02911073 -0.005839129
0.025378909 -0.063621238 -0.00582885
0.024371197 -0.064306766 -0.0057284385
0.059673287 0.030135583 -0.0067564473
0.059470464 0.027550343 -0.0067353277
0.059083741 0.025491837 -0.0067174188
0.059029825 0.021015693 -0.0046829465
0.032234721 -0.055786595 -0.0039312397
0.031343866 -0.057927981 -0.0039325235
0.029750872 -0.060499534 -0.0047797803
0.02832487 -0.06317059 -0.005850601
0.026719755 -0.064624526 -0.0058296164
0.060880307 0.025798567 -0.0067309984
0.061755333 0.023550166 -0.0064970753
0.060944613 0.020701723 -0.0050326237
0.060634509 0.018111106 -0.0046707895
0.060564753 0.01590698 -0.0046537132
0.035888661 -0.053438678 -0.0039718789
0.03445974 -0.055779696 -0.0042360481
0.033309791 -0.058477048 -0.0048448886
0.032064829 -0.061014019 -0.0055703949
0.030455897 -0.062839113 -0.0058665676
0.063526154 0.022386713 -0.006721667
0.063307323 0.019842675 -0.0060897833
0.0627065 0.016958812 -0.0052717617
0.062049773 0.014202436 -0.004758358
0.061908368 0.011525629 -0.0046288129
0.040846206 -0.049462877 -0.0040332354
0.039462693 -0.051300913 -0.004198675
0.038153738 -0.053821083 -0.0047961255
0.036879927 -0.056370944 -0.005594044
0.035356071 -0.058793731 -0.0058628237
0.034291711 -0.060582392 -0.0059077702
0.064928278 0.015698774 -0.0065794545
0.064464763 0.013159895 -0.0060664401
0.063546889 0.010332501 -0.0051754084
0.063129984 0.0075736623 -0.0047844015
0.062692232 0.0048208572 -0.0045826528
0.062376082 0.00266435 -0.0045643663
0.045900431 -0.044411123 -0.0041032885
0.044639342 -0.046627864 -0.0040783896
0.043175571 -0.049314477 -0.0043852082
0.042052306 -0.051902063 -0.0052160304
0.040686559 -0.054319758 -0.0058154985
0.03906966 -0.056122396 -0.0059715649
0.066755161 0.014442543 -0.0066814367
0.066329427 0.012332652 -0.006662759
0.065678045 0.0095730703 -0.0063417922
0.065296173 0.0066335425 -0.005972371
0.064509869 0.0038963761 -0.0052706124
0.063745566 0.0010496546 -0.0047976184
0.063226588 -0.0017924234 -0.0045844596
0.062784597 -0.0042071901 -0.0045146779
0.050582927 -0.039466638 -0.0041701989
0.049179312 -0.04200466 -0.0041836603
0.047872704 -0.044415861 -0.0044783275
0.046844266 -0.047300588 -0.0049658883
0.045591384 -0.049778048 -0.0055983923
0.044009607 -0.052089982 -0.006033197
0.066810325 0.0051508248 -0.00661112
0.066624321 0.0026173722 -0.0064007235
0.066179514 -0.00012289546 -0.0061301198
0.06515573 -0.0028538629 -0.0057028304
0.064385884 -0.0056508519 -0.005121232
0.063722327 -0.0085590947 -0.0047669597
0.062999271 -0.011484237 -0.0046967384
0.062166173 -0.014266759 -0.0045073992
0.061219126 -0.017350176 -0.0044048727
0.06021465 -0.020224573 -0.0043767286
0.059228487 -0.023077751 -0.0043488611
0.058055315 -0.026034398 -0.0043189917
0.05700523 -0.028770674 -0.004396894
0.055968754 -0.031505279 -0.0044071958
0.054850675 -0.034339719 -0.0044857892
0.053561665 -0.037090436 -0.0046066879
0.05260241 -0.039785326 -0.0050124512
0.051389895 -0.042409614 -0.005326652
0.05006757 -0.045118086 -0.005746237
0.048878152 -0.047535986 -0.0059483303
0.047863867 -0.049362682 -0.0060780346
0.067474261 -0.0017697308 -0.0065626875
0.066899754 -0.0038893074 -0.0065429895
0.066183992 -0.006745493 -0.0064056832
0.065623552 -0.0095027983 -0.0062000775
0.064997777 -0.012421656 -0.0060216701
0.064026065 -0.015192838 -0.0057276683
0.063132666 -0.018021937 -0.0054620598
0.06214115 -0.020850122 -0.0054832273
0.061142754 -0.023688776 -0.0054778205
0.060129799 -0.026512966 -0.0055269292
0.05914076 -0.029312722 -0.0056861998
0.058139984 -0.03214144 -0.0057220724
0.056971271 -0.034883991 -0.0058267834
0.055770639 -0.037573155 -0.0059454693
0.054577239 -0.040163204 -0.0061329221
0.053613015 -0.042103615 -0.0061692209
0.064766288 -0.019077931 -0.0064141192
0.06394916 -0.021572771 -0.0063900645
0.062973194 -0.024396548 -0.0063624843
0.0620315 -0.02696874 -0.0063370168
0.060880084 -0.029995304 -0.0063067661
0.060196918 -0.031971954 -0.0062874747
-0.055748444 0.028930267 -0.0030245036
-0.056648389 0.026553433 -0.0030007381
-0.057545006 0.023561103 -0.0029724326
-0.058623273 0.020744232 -0.0029442345
-0.059713326 0.018143009 -0.0029175726
-0.060706303 0.015343321 -0.0028900541
-0.061562069 0.012628039 -0.0028640814
-0.061958533 0.010559058 -0.0028459127
-0.049269635 0.038679589 -0.0031391629
-0.050351195 0.0368344 -0.0031183173
-0.051658545 0.034261461 -0.0030752951
-0.052774388 0.03146841 -0.0029087088
-0.053914752 0.028788816 -0.002651945
-0.054885771 0.025984386 -0.0023675598
-0.055863574 0.023099162 -0.0024646022
-0.05680107 0.020269794 -0.0024152996
-0.057852428 0.017478423 -0.0022072105
-0.058853369 0.014578965 -0.0020147993
-0.059832789 0.011705459 -0.0021580271
-0.060705237 0.0089397645 -0.0024759488
-0.061491318 0.0060569858 -0.0025042905
-0.062137272 0.0033317003 -0.0027005945
-0.062596552 0.00054914318 -0.0027658101
-0.043574065 0.046101648 -0.0032312535
-0.044514526 0.044355944 -0.0032120626
-0.045785367 0.041799948 -0.0030419272
-0.047132395 0.039155316 -0.002767907
-0.048231699 0.036374815 -0.0025010363
-0.049280547 0.033506691 -0.0019897819
-0.050222479 0.030670699 -0.0014916012
-0.051315952 0.028032813 -0.001226194
-0.052647743 0.025262631 -0.0010310101
-0.053735405 0.0223371 -0.001150931
-0.05479864 0.019540679 -0.00099476671
-0.055860698 0.016724471 -0.0009309107
-0.056631148 0.013881959 -0.00090459397
-0.057542026 0.010984706 -0.0010157481
-0.058345966 0.0080394782 -0.0012046372
-0.059107289 0.0051939208 -0.00118965
-0.06003781 0.0023383051 -0.0015497848
-0.060993947 -0.00054934062 -0.0021039105
-0.06181724 -0.0034272447 -0.002464443
-0.062303379 -0.0058517102 -0.0027189185
-0.039842632 0.047995619 -0.0032690156
-0.041416261 0.046319894 -0.0032108366
-0.042407721 0.043860633 -0.0027165515
-0.043349169 0.041167304 -0.001916369
-0.044477057 0.038429208 -0.0014346821
-0.04621353 0.035860941 -0.0011367644
-0.047550041 0.032854222 -0.0011055359
-0.048426941 0.030425347 -0.0010815784
-0.057808824 0.0036413921 -0.000819195
-0.058087591 0.001371935 -0.00080019445
-0.058451153 -0.001455022 -0.00096180366
-0.05914354 -0.004432803 -0.0012822802
-0.060004298 -0.0072161071 -0.0019524961
-0.060483247 -0.01006409 -0.0022411558
-0.060956225 -0.012714939 -0.0025608873
-0.036106329 0.050458472 -0.0032341799
-0.037616201 0.048358772 -0.0027858021
-0.038639933 0.045688525 -0.0020421159
-0.040020067 0.043215528 -0.0013982262
-0.0414185 0.040777035 -0.0012041633
-0.04239421 0.038856354 -0.0011834512
-0.057668772 -0.0056508537 -0.00074942037
-0.057932504 -0.0082453433 -0.00074668485
-0.058221657 -0.011052772 -0.00097669708
-0.059182875 -0.013728505 -0.0018048832
-0.059767954 -0.016488364 -0.0024540548
-0.059739918 -0.018901875 -0.0026357884
-0.032387059 0.052525729 -0.0032525144
-0.033874378 0.050403677 -0.0026379072
-0.034795873 0.047555644 -0.0017878996
-0.035881296 0.045456722 -0.0012744262
-0.056605376 -0.012328412 -0.00070530677
-0.057457086 -0.014267756 -0.0011852469
-0.058541015 -0.017140102 -0.0019566589
-0.05931104 -0.019170508 -0.0026364459
-0.028762195 0.054214809 -0.0032999131
-0.030024266 0.052332386 -0.0023934958
-0.031142022 0.049637958 -0.0016657123
-0.032522239 0.047279481 -0.0013648549
-0.02456969 0.056167357 -0.0033329749
-0.026115496 0.054031834 -0.0024408584
-0.027657675 0.051770896 -0.0015494501
-0.028969528 0.049946748 -0.0013518231
-0.020830557 0.057818275 -0.0032959927
-0.022309955 0.05594451 -0.0024393939
-0.02360826 0.053775892 -0.0015257156
-0.01867066 0.057619318 -0.0029390319
-0.019572493 0.055180363 -0.0016701468
-0.021337554 0.053795598 -0.001428869
-0.015610112 0.056482017 -0.0014851826
-0.017370353 0.05530287 -0.0014651669
-0.013588611 0.056695856 -0.0014994347
-0.04579331 -0.040417664 -0.0015595085
-0.046357468 -0.042429574 -0.0025407001
-0.0076947976 0.060104262 -0.0024490608
-0.0083266962 0.058069143 -0.0016710206
-0.044258669 -0.043873586 -0.0025428759
-0.0038782712 0.061047431 -0.0025933804
-0.0053180233 0.059756603 -0.0023359132
-0.0066187661 0.057867445 -0.0015519791
-0.0015064981 0.060519006 -0.0024450596
-0.0021581464 0.059344091 -0.001889037
0.0013075564 0.059744194 -0.0017796153
0.00062568858 0.058621619 -0.001603084
0.005466437 0.061656963 -0.0036565855
0.0041574854 0.059741106 -0.0027185499
0.0024149548 0.058234822 -0.0016113303
0.0081455829 0.061031412 -0.0034811518
0.0071371878 0.058567587 -0.0020143033
0.010602742 0.060349956 -0.0032541011
0.0098698968 0.058048103 -0.0018839871
0.01256582 0.057104625 -0.0016662893
-0.024902828 -0.05608562 -0.0015711411
0.018152367 0.059733372 -0.0037213534
0.01724687 0.057953652 -0.0027021319
0.015920518 0.05614654 -0.0016800375
-0.022754848 -0.055314887 -0.0011497261
-0.023247493 -0.057675436 -0.0021220832
0.018613843 0.059520353 -0.003722623
0.018912202 0.057105236 -0.0025884272
0.018411748 0.05547709 -0.0016905146
-0.019928543 -0.056348875 -0.0011284291
-0.02079504 -0.058839295 -0.0021038807
-0.020375719 -0.06072088 -0.0025642917
0.022371694 0.055846792 -0.0021703155
0.021544753 0.054022618 -0.0016992198
-0.017041771 -0.057526972 -0.00083673571
-0.017918924 -0.059889976 -0.0019935365
-0.018368138 -0.061414815 -0.0025715695
0.025488125 0.057208415 -0.0037480679
0.024900248 0.055402584 -0.0029306645
0.024219779 0.053164136 -0.0017422246
-0.014208708 -0.058290236 -0.00080228003
-0.014949309 -0.060798302 -0.0019585495
-0.015946876 -0.062305253 -0.0025799733
0.028027173 0.054012809 -0.0028825258
0.027330741 0.052056845 -0.0017522541
-0.011582846 -0.059340995 -0.00076130102
-0.013367094 -0.061372817 -0.0023400469
0.02973669 0.053416517 -0.0030216496
0.029915148 0.05092166 -0.0017425767
-0.0084268525 -0.06019238 -0.00071894302
0.034041125 0.051826589 -0.0029987041
0.032641798 0.049729832 -0.0019928606
0.032982443 0.047668934 -0.0017223706
-0.0044929497 -0.058882911 -0.00067760336
-0.0055574365 -0.060797542 -0.0011437028
-0.0052380385 -0.063197337 -0.0018709707
0.036006033 0.051042639 -0.0033670564
0.035478026 0.048666161 -0.0022141966
0.034941047 0.046813529 -0.0017281291
-0.0019127559 -0.059495069 -0.00068922213
-0.003342608 -0.061291806 -0.0011559124
-0.0044587608 -0.063605614 -0.0024991462
0.039267309 0.049459614 -0.0037337691
0.038277261 0.047631096 -0.0026833965
0.03783083 0.045121744 -0.0018364644
0.00050320104 -0.06012157 -0.001022076
0.0012169983 -0.062806942 -0.0026836325
0.00064177252 -0.064935736 -0.0026638303
0.040230088 0.048677482 -0.0037755156
0.040859088 0.046415936 -0.0034823266
0.040149 0.043931425 -0.0025348801
0.039930873 0.041848019 -0.001721615
0.0036771931 -0.0616582 -0.002207662
0.0022893399 -0.063466564 -0.0026853606
0.0013043862 -0.065141842 -0.002666397
0.043258443 0.045038208 -0.0037667304
0.042889312 0.042915296 -0.00285953
0.042052202 0.040255472 -0.0018249252
0.042145729 0.038144406 -0.0017073222
0.045118228 0.043777332 -0.003768862
0.045417413 0.041825034 -0.0032029271
0.044768125 0.039119884 -0.0023429689
0.044454984 0.037123792 -0.0017140198
0.046906285 0.040105022 -0.0027520845
0.047201056 0.037836917 -0.0021603995
0.047018964 0.035608418 -0.0017187443
0.04916646 0.036321405 -0.0019040792
0.049417719 0.034164689 -0.0019914662
0.049263645 0.031817291 -0.0017038236
0.052272536 0.032461409 -0.0031506589
0.05148223 0.03042895 -0.002408962
0.051158912 0.0281715 -0.0017736404
0.053829499 0.031669732 -0.0037313437
0.053944312 0.029368758 -0.0034325495
0.05319231 0.026737887 -0.0021500594
0.053082731 0.024179505 -0.0016696171
0.054753296 0.025487656 -0.0024500485
0.054787204 0.022872642 -0.0017354881
0.054565586 0.02014615 -0.001648413
0.054597341 0.017925873 -0.0016315517
0.031408705 -0.049270824 -0.00097545818
0.02974714 -0.05121775 -0.0010193973
0.02847743 -0.053534143 -0.0017596884
0.057927623 0.020596456 -0.0032977872
0.056923222 0.019103836 -0.0024379552
0.056371756 0.016346034 -0.0017558396
0.056487564 0.013920939 -0.0016129352
0.034636699 -0.047209464 -0.001011341
0.033546209 -0.049036134 -0.0012942958
0.032504372 -0.051840007 -0.0018567477
0.031527903 -0.054219611 -0.0028101797
0.059311483 0.020178951 -0.0036782827
0.059312683 0.017899467 -0.0034903169
0.058781561 0.015145851 -0.0027488279
0.058047738 0.012322692 -0.0019473338
0.057772785 0.0094548147 -0.0015870245
0.057476681 0.0072137695 -0.0015681314
0.039096173 -0.04569342 -0.0010507875
0.037482664 -0.047517374 -0.0016380782
0.036128361 -0.049912348 -0.0027057093
0.035028376 -0.052534401 -0.0028974374
0.033532731 -0.054562375 -0.002948639
0.060792495 0.016206797 -0.0036573685
0.06069589 0.014024144 -0.0036400938
0.060447868 0.011298768 -0.0032718272
0.05974137 0.0085742213 -0.002518031
0.058938112 0.0058066193 -0.0019310822
0.05831974 0.0029569678 -0.0016067612
0.057747006 0.000214478 -0.0015166063
0.044784285 -0.038307615 -0.0011425558
0.044003431 -0.040254064 -0.0011228677
0.042521492 -0.043043096 -0.0010923988
0.041236494 -0.045437314 -0.0014963076
0.040072296 -0.04794855 -0.0024790361
0.03850358 -0.050418898 -0.0030112346
0.037199024 -0.052289173 -0.0029888616
0.061968807 0.0097403303 -0.0036155521
0.061703339 0.0076447297 -0.003575708
0.061336908 0.0048414767 -0.0032136631
0.060543813 0.001952678 -0.0025714347
0.059648644 -0.00093323179 -0.0019000521
0.059079107 -0.003741473 -0.0016089719
0.058485646 -0.0067415116 -0.0014683425
0.057869613 -0.0092800176 -0.0014451847
0.052688569 -0.024822533 -0.0012945733
0.05181431 -0.026934907 -0.001273039
0.050841335 -0.029697891 -0.0012459396
0.049558759 -0.032498013 -0.0012166196
0.04818657 -0.035132863 -0.0014408653
0.046907909 -0.037804186 -0.0016051113
0.045856148 -0.04070475 -0.001856479
0.044727538 -0.043468989 -0.0021109655
0.043511279 -0.045928493 -0.0025702431
0.042208966 -0.048227098 -0.0030510831
0.062662728 0.0030392967 -0.0035689613
0.062354945 0.00093153119 -0.0035509786
0.061957624 -0.0018541217 -0.0032742326
0.061308719 -0.0047915541 -0.0028877018
0.06046503 -0.0076026525 -0.0024984386
0.059489932 -0.010310678 -0.0020496033
0.058669776 -0.013168709 -0.0018582364
0.05764107 -0.016144576 -0.0018040597
0.056617174 -0.018993791 -0.0017636772
0.05567367 -0.021807684 -0.0017618426
0.054551311 -0.024552878 -0.001672011
0.053625632 -0.027513204 -0.001912135
0.052671041 -0.030306878 -0.002010898
0.051693518 -0.033084083 -0.002148313
0.050699774 -0.035883963 -0.0025595296
0.049578872 -0.038766697 -0.0028390181
0.048232112 -0.041283105 -0.0030547562
0.046819493 -0.043316476 -0.0031173001
0.062794775 -0.0061334064 -0.0035000306
0.062364843 -0.0084676864 -0.0034795462
0.061533093 -0.011299971 -0.0033122941
0.06078355 -0.014126198 -0.0031268117
0.059911095 -0.016931536 -0.0028544965
0.058983248 -0.019740935 -0.0029201652
0.058026087 -0.022543099 -0.0029555445
0.056922872 -0.02530057 -0.0030516703
0.055823497 -0.028085671 -0.0031850885
0.054754879 -0.030987779 -0.0032607203
0.053674292 -0.033696368 -0.0032333012
0.052489407 -0.036288641 -0.0032062775
0.051604189 -0.03824608 -0.0031858224
-0.04919409 0.028974548 -6.5694272e-05
-0.050074175 0.027214143 -4.6844092e-05
-0.051266283 0.024558345 -1.9187843e-05
-0.052292645 0.0218958 7.4820309e-06
-0.053317029 0.01905893 3.5464953e-05
-0.054380834 0.016285628 6.3211366e-05
-0.055187002 0.01335746 9.0522226e-05
-0.05607225 0.010488573 0.00011787746
-0.056903709 0.0077827824 0.00014365591
-0.057563908 0.005229475 0.00016721766
-0.043752335 0.03710616 -0.00016162047
-0.045034196 0.035033323 -0.00010753916
-0.046069421 0.032483298 -2.3358254e-05
-0.047172964 0.029650949 -3.8069942e-05
-0.048192877 0.02680837 0.00028450883
-0.055420499 0.0071733948 0.00041681904
-0.056346543 0.0041397586 0.00016786656
-0.056785721 0.0013357718 0.00019193563
-0.057088699 -0.0015477538 0.00021577162
-0.057493296 -0.0035268515 0.0002333821
-0.0377733 0.044097371 -0.00025218003
-0.038884897 0.042453211 -0.00023276429
-0.040221833 0.039899014 -0.0001408659
-0.041469313 0.037195772 0.00015673009
-0.042517655 0.034326233 0.00066659128
-0.055474609 0.00029268675 0.00019165792
-0.056109585 -0.0022652447 0.00021508201
-0.056543775 -0.0052086301 0.00024017971
-0.056605171 -0.0081516244 0.00026294054
-0.05680503 -0.010338916 0.00028086701
-0.035623677 0.044094965 -0.00026566471
-0.036748782 0.041954488 4.6556757e-05
-0.037691303 0.039221592 0.00065941713
-0.056051292 -0.0097301435 0.00027151941
-0.056291804 -0.011151584 0.00028380301
-0.030070428 0.048400164 -0.00033315099
-0.03149059 0.046267774 -0.0001868197
-0.032885898 0.043727178 0.00019001143
-0.02674593 0.050643317 -0.00037103504
-0.028000887 0.048367128 -8.4477622e-05
-0.023173895 0.052439913 -0.00040705875
-0.024410479 0.050256073 -0.0001226895
-0.019071501 0.053823862 -0.00044325046
-0.02047864 0.052145407 -0.00016912181
-0.015153775 0.05565352 -0.00048168981
-0.01649655 0.053940218 -0.00031892679
-0.01281401 0.055439904 -0.00022603336
-0.0088890418 0.056612756 -0.00052821997
-0.0043467525 0.057807568 -0.0005656979
-0.0022380091 0.057723064 -0.00057830248
0.00040096045 0.057264585 -0.00054785481
0.0043767709 0.058052137 -0.00062217331
0.0032994011 0.056660913 -0.0002272813
0.0069374405 0.057207771 -0.00063178514
0.0061152056 0.055674396 -1.7100159e-05
0.0097329747 0.056602769 -0.00064473198
0.012649046 0.056146406 -0.00065951893
0.015231859 0.055066671 -0.00066747982
0.018382624 0.054017119 -0.00059348054
-0.019340917 -0.055039555 0.0003861399
0.020828253 0.052952334 -0.00068644155
-0.016689483 -0.056084041 0.0003774814
0.023887031 0.051801424 -0.00069684116
0.02313086 0.049835425 2.501125e-06
-0.013751776 -0.056961689 0.0003657621
0.026539335 0.050916232 -0.00070670136
0.026047207 0.048913952 -4.6244357e-05
-0.011025339 -0.05826902 0.00035863256
0.029355735 0.04967875 -0.00071494014
0.028836925 0.047868129 -0.00028202869
-0.008184582 -0.0589379 0.00034593296
0.031313691 0.048741177 -0.00072002504
0.031632006 0.046828609 -0.00029445556
-0.0063172039 -0.059194282 0.00033623577
0.034321707 0.045641016 -0.00056896452
0.033495396 0.043062206 0.00044933966
0.036699511 0.044323456 -0.0007201999
0.036304861 0.042111494 6.8383873e-05
0.038606718 0.042960368 -0.00072173186
0.03890904 0.040804368 -0.00049793499
0.040828876 0.039228704 -0.00070728629
0.040842734 0.037152786 -0.00015400379
0.043564066 0.035903621 -0.00039532449
0.042926744 0.03353091 0.00021881747
0.04612691 0.034646519 -0.00070564623
0.045738064 0.032501653 -0.00041330513
0.048203472 0.031208795 -0.00069250911
0.047664925 0.028641593 -0.0001929815
0.049811669 0.029633537 -0.00069055578
0.050060261 0.027365677 -0.00064505037
0.049334161 0.024832865 4.0560757e-05
0.051687337 0.025942609 -0.00067423575
0.051853187 0.02360221 -0.00058434095
0.051245265 0.020984218 3.5259e-06
0.053480029 0.022090204 -0.0006561685
0.053300776 0.019993514 -0.00063914922
0.053158134 0.017198628 -0.0001735407
0.052264728 0.014346948 0.00075862178
0.031279087 -0.048790772 2.1709071e-05
0.055144485 0.015823163 -0.00061898388
0.054886032 0.013338071 -0.0003613373
0.05407225 0.010554894 0.00012023104
0.036129445 -0.044853043 -3.8552767e-05
0.034525454 -0.046201218 -1.8304738e-05
0.032657102 -0.047825489 5.7721336e-06
0.056558196 0.012121681 -0.00059969141
0.056383625 0.0096432921 -0.00057975459
0.055756085 0.0068460461 -0.0003582699
0.054889955 0.003908027 0.00012776892
0.041016351 -0.039957218 -0.00010637287
0.039723832 -0.042020574 -8.2637125e-05
0.038251579 -0.044372275 -5.5539102e-05
0.036969267 -0.046258956 -3.3165852e-05
0.057387501 0.0055863801 -0.00055517891
0.056994095 0.0030398034 -0.00053336844
0.056419566 -2.7619302e-05 -0.00047235351
0.056149084 -0.0026886901 -0.00048452278
0.05582843 -0.0057269428 -0.00012607433
0.055358987 -0.0081315665 0.00014523117
0.045328267 -0.03407567 0.00021736354
0.044289209 -0.036903381 -1.4937395e-05
0.043014608 -0.039588273 -0.00012173333
0.041688435 -0.042197071 -9.3595037e-05
0.040160738 -0.044507869 -6.6445966e-05
0.057844996 -0.0018305015 -0.00050162082
0.05772401 -0.0037062773 -0.00048664596
0.057271756 -0.0064497879 -0.00046295486
0.056507237 -0.009449956 -0.00039369165
0.055769671 -0.012342247 -0.00024546875
0.054705814 -0.01506833 6.9820926e-06
0.05380239 -0.017934699 0.00012794133
0.052838825 -0.020809155 0.00012688979
0.051701207 -0.023629488 -4.9638707e-05
0.050663199 -0.026334431 -0.00022440472
0.049700126 -0.029169384 -0.00024280742
0.048511218 -0.031908222 -0.00021453982
0.047003608 -0.034455847 -0.00018573074
0.045764543 -0.037040509 -0.00015829157
0.057838362 -0.011281963 -0.00042971721
0.057444055 -0.013169535 -0.0004129415
0.056579817 -0.0155971 -0.0003890584
0.055518143 -0.018466752 -0.00036059273
0.054511681 -0.021378778 -0.00033215061
0.053560909 -0.023658071 -0.00030883815
