# .PCD v0.7 - Point Cloud Data file format
VERSION 0.7
FIELDS x y z
SIZE 4 4 4
TYPE F F F
COUNT 1 1 1
WIDTH 1231
HEIGHT 1
VIEWPOINT 0 0 0 1 0 0 0
POINTS 1231
DATA ascii
0.07717061 -0.00027048588 -0.0062311422
0.077321626 0.0021140547 -0.0068984451
0.077397361 0.004812717 -0.0068531935
0.077355303 0.007334996 -0.0071387808
0.077403173 0.0099910134 -0.0069929687
0.077088892 0.011931255 -0.0062278057
0.076831341 0.015435409 -0.0068190182
0.076951526 0.018236116 -0.0071677398
0.072067313 -0.035664406 -0.0076676989
0.072455645 -0.033848345 -0.0076513053
0.072965778 -0.031298626 -0.0075155152
0.073421493 -0.028780604 -0.0069610695
0.073580958 -0.026161794 -0.0069468832
0.07366737 -0.023521496 -0.0064425613
0.073623136 -0.021022238 -0.0059754751
0.073931806 -0.018374687 -0.005764205
0.074042074 -0.015851501 -0.0057770698
0.074322082 -0.013169946 -0.0056145731
0.074460275 -0.010779153 -0.0054372386
0.075077891 -0.0081406496 -0.0054134806
0.075376593 -0.0052425517 -0.0053866818
0.075137295 -0.0027777546 -0.0053627626
0.07541877 -0.00036284979 -0.0053405059
0.07567846 0.0025607003 -0.0053689298
0.07536941 0.0049714362 -0.0055849566
0.075245008 0.0076350551 -0.0058049378
0.075122841 0.010273032 -0.0055873501
0.075008392 0.012798554 -0.0057411576
0.07528697 0.015447788 -0.0063053113
0.075149886 0.018143142 -0.0066493633
0.075128339 0.020444732 -0.0068888972
0.07526473 0.023184502 -0.0070981123
0.07513278 0.025277775 -0.0070967972
0.069814831 -0.038361959 -0.0074881348
0.070415378 -0.036384657 -0.007148996
0.070627972 -0.03383524 -0.0069433246
0.070662327 -0.031251162 -0.0063499166
0.070855975 -0.028691631 -0.0059232009
0.071287401 -0.026169058 -0.0058258614
0.071469322 -0.023537906 -0.0055512427
0.071905106 -0.021228081 -0.0055303504
0.072261222 -0.019095737 -0.005510929
0.073584832 0.01122366 -0.0052264463
0.073310331 0.013088943 -0.0052081314
0.073347621 0.015623214 -0.0055256314
0.073061503 0.01817246 -0.0055720801
0.072955959 0.020710886 -0.0057174116
0.073043004 0.023198774 -0.0062322142
0.073079355 0.025913274 -0.0063698371
0.07275591 0.028214062 -0.0069206147
0.072434515 0.031148221 -0.0070349663
0.072660923 0.033262439 -0.0070154499
0.066348664 -0.042941049 -0.0067235869
0.067162335 -0.040879149 -0.0067058639
0.067733318 -0.038789809 -0.0067605535
0.067791425 -0.036314193 -0.0062062279
0.068027228 -0.033806603 -0.0058658761
0.068329729 -0.031373855 -0.0056185252
0.069181487 -0.029393923 -0.0056015467
0.071502663 0.021516928 -0.0051240828
0.070672274 0.023697507 -0.0051996373
0.07069023 0.025992369 -0.0052917372
0.07071247 0.02856276 -0.0059379991
0.070785567 0.031211345 -0.0065084249
0.070752531 0.033286016 -0.0068627428
0.063817598 -0.046371896 -0.0067503531
0.064757384 -0.043843433 -0.0067284489
0.064959086 -0.041381408 -0.0063673356
0.065661296 -0.038977794 -0.0060689878
0.066206671 -0.036730569 -0.0056643211
0.068720125 0.024553318 -0.0050889337
0.068579242 0.026129458 -0.0050736661
0.068560012 0.028518345 -0.0051176851
0.068424478 0.031353638 -0.0052150693
0.068321519 0.033867367 -0.0058956021
0.067921415 0.036448736 -0.0067639053
0.067921817 0.038966984 -0.0069505004
0.067405865 0.040773876 -0.0069322176
0.061384022 -0.048645467 -0.0062329704
0.062108889 -0.046572376 -0.0065817628
0.06238924 -0.044194471 -0.0062107937
0.06337706 -0.041089378 -0.0056991903
0.063681975 -0.039893374 -0.0056885458
0.066757292 0.031957082 -0.0050142431
0.06680011 0.034110405 -0.0054384
0.065847009 0.036637735 -0.0060541998
0.065906808 0.039223429 -0.0062092957
0.065817535 0.041722454 -0.0065463032
0.06581115 0.043863848 -0.0068992143
0.058955744 -0.050865009 -0.0060545225
0.05952321 -0.049140748 -0.0057668686
0.060181126 -0.046721239 -0.005745294
0.060631718 -0.044746436 -0.005727597
0.062363543 0.035339914 -0.0049721282
0.063083544 0.036826111 -0.0051642377
0.063401207 0.039324712 -0.005061903
0.063413031 0.041816477 -0.0056979479
0.063355915 0.044537485 -0.0065488108
0.0631653 0.047128946 -0.0066013513
0.062956393 0.049343504 -0.0058407416
0.055951305 -0.055576392 -0.0068196659
0.056193683 -0.053967789 -0.0066752895
0.057022244 -0.051656719 -0.0061249398
0.05767224 -0.049756885 -0.0057683485
0.061597865 0.035373323 -0.0049700621
0.061776396 0.036729272 -0.0049576121
0.061842032 0.039794806 -0.0049286927
0.061278932 0.042132691 -0.0051840511
0.061021902 0.044631798 -0.005281142
0.061085645 0.047162469 -0.0057077589
0.061264232 0.049748562 -0.0058798422
0.060620241 0.051421817 -0.0063157147
0.053375099 -0.058336906 -0.0078399917
0.053843562 -0.056456968 -0.0071426826
0.054144129 -0.054337312 -0.0061499383
0.055164121 -0.052255593 -0.0057863132
0.058583505 0.045400433 -0.0048680934
0.058498234 0.047378588 -0.0060055703
0.058664747 0.04999182 -0.0067155198
0.05837483 0.052181866 -0.0064908881
0.057789922 0.054412678 -0.0067809052
0.05064512 -0.060898028 -0.0068579628
0.050968006 -0.058974028 -0.0067421035
0.051321238 -0.056463998 -0.0059135132
0.052046046 -0.054708507 -0.0058024502
0.056481756 0.048235022 -0.0058890805
0.055789251 0.050074168 -0.0056091421
0.056149647 0.052543819 -0.0064616436
0.056086689 0.05515505 -0.0067699896
0.055453561 0.056886557 -0.0067521236
0.047521077 -0.063479185 -0.0068753171
0.048297446 -0.061360881 -0.0066723847
0.048739646 -0.058944955 -0.006150289
0.049356002 -0.056826387 -0.0058163884
0.054335218 0.050719768 -0.0049746097
0.053622063 0.052851271 -0.0062501999
0.053655736 0.05536487 -0.0067486474
0.053669661 0.057911403 -0.0067383903
0.053178139 0.05965187 -0.0067206887
0.045600757 -0.063707247 -0.0066191056
0.046487723 -0.061719 -0.0060183932
0.047006641 -0.059877515 -0.0058399541
0.051902749 0.053888775 -0.0053973696
0.051051315 0.055462375 -0.0060322359
0.051133465 0.057789687 -0.0067336913
0.052233499 0.059659339 -0.0067184749
0.042830221 -0.065303296 -0.0065485737
0.043244276 -0.064106159 -0.0060846438
0.048833121 0.05636384 -0.0051964102
0.048471179 0.058087811 -0.0059573366
0.049239598 0.061814789 -0.0066911965
0.048470289 0.063087091 -0.0066773747
0.048007723 0.064905792 -0.0066590714
0.040076405 -0.068342596 -0.0069044135
0.040398605 -0.066498674 -0.0064101042
0.041213285 -0.064615414 -0.005871647
0.046954907 0.057826754 -0.0055808807
0.046139821 0.063662343 -0.0066666706
0.045891762 0.065406963 -0.0066494709
0.037728727 -0.068603322 -0.0065486017
0.03795141 -0.066752128 -0.0059576407
0.042513851 0.062133931 -0.0046727071
0.043371025 0.06374041 -0.0063129282
0.043614719 0.066089615 -0.0066378554
0.04265672 0.067569062 -0.0066215931
0.034733258 -0.070839889 -0.0069158734
0.035211354 -0.068657704 -0.0064102481
0.035313256 -0.066898249 -0.0058798161
0.0418525 0.062213928 -0.0046704374
0.041258145 0.06401547 -0.0051198108
0.041027628 0.066174053 -0.0061150333
0.040952817 0.068158031 -0.0066120564
0.031466626 -0.072710566 -0.0069261799
0.032414246 -0.071194477 -0.006824214
0.032623537 -0.068557158 -0.0065602995
0.033473533 -0.066927373 -0.0058758897
0.039356168 0.064777568 -0.0046404251
0.038587317 0.066571578 -0.0051681083
0.038455788 0.068635546 -0.006503561
0.029496659 -0.073065206 -0.0059916787
0.030060455 -0.071241587 -0.0059091221
0.030822417 -0.068982191 -0.0058893184
0.035973515 0.067022011 -0.00494012
0.036011387 0.069102615 -0.006371025
0.035832569 0.071051016 -0.0065729413
0.026212856 -0.075001478 -0.0064358995
0.027179839 -0.073525585 -0.005937269
0.027678737 -0.071685478 -0.0059077712
0.034080029 0.067526579 -0.0047451695
0.033438902 0.069283135 -0.0054646754
0.033293545 0.071637861 -0.005961583
0.032658119 0.073467672 -0.0055427542
0.024393752 -0.075127169 -0.006782921
0.024658564 -0.073585883 -0.0060421168
0.030849926 0.069589823 -0.0049325889
0.030818574 0.071904689 -0.0061707725
0.03189633 0.073500901 -0.0055407137
0.021750547 -0.075738199 -0.0066152546
0.022009803 -0.073668629 -0.0059137908
0.028398067 0.069905542 -0.0048610037
0.028273027 0.072142012 -0.0059376443
0.02798871 0.074236073 -0.0065248208
0.018594837 -0.077338755 -0.0069406778
0.019273475 -0.075859509 -0.0068170326
0.019521525 -0.073781274 -0.0059090257
0.025996611 0.070372172 -0.0045568552
0.025752937 0.072132722 -0.0052475925
0.025771782 0.07461337 -0.0056946832
0.01667795 -0.077315323 -0.0059360266
0.016818678 -0.075765349 -0.0059218146
0.01750619 -0.07420855 -0.0059084585
0.024325501 0.07075192 -0.0045494367
0.023159817 0.072364628 -0.0050474438
0.023250973 0.074845001 -0.0056748516
0.022818699 0.07692872 -0.0054874276
0.013957263 -0.07771533 -0.0059336494
0.014111479 -0.075965516 -0.005917409
0.020592635 0.072577603 -0.0049120146
0.020624306 0.075014248 -0.0059941486
0.020845169 0.076924652 -0.0061036805
0.011414981 -0.077641077 -0.0059271972
0.011667171 -0.076089732 -0.0059129586
0.018081386 0.073020011 -0.0046075475
0.018084763 0.075107321 -0.0056368979
0.018026767 0.077222757 -0.0061759138
0.0087855272 -0.077604443 -0.0059207389
0.0099182408 -0.076516308 -0.005913008
0.015835574 0.073330194 -0.0045825173
0.015511573 0.075185485 -0.005362269
0.015565936 0.077823691 -0.0054623578
0.014906093 0.079431988 -0.0054456443
0.0053924564 -0.079438381 -0.0059303786
0.006150377 -0.077855036 -0.0059173191
0.0053242045 -0.076315872 -0.005900613
0.012840241 0.073558703 -0.0044965846
0.012882818 0.075348027 -0.0050575789
0.013146722 0.077706598 -0.0054579419
0.0034283232 -0.079444744 -0.0059259515
0.0035728693 -0.077773653 -0.0059106294
0.0044053965 -0.076275781 -0.0058981339
0.010281626 0.074008211 -0.004486477
0.0102833 0.075614907 -0.0047963895
0.010359898 0.077820435 -0.0054504965
0.00093015609 -0.07944186 -0.0059202174
0.0010265026 -0.077607915 -0.0059032408
0.0083666965 0.074209765 -0.0044801915
0.0076835016 0.075743608 -0.0047641499
0.0078066639 0.078184418 -0.0054412121
0.0077313306 0.079812877 -0.005425673
-0.0017977416 -0.079486176 -0.0059144064
-0.0015679764 -0.077688396 -0.0058980477
0.004815897 0.07424666 -0.0044717304
0.0050837845 0.075673863 -0.0051008705
0.0052803126 0.078139752 -0.0055116401
0.0054599447 0.079844132 -0.0054201726
-0.0041216668 -0.07923054 -0.0059066731
-0.0042503565 -0.077739164 -0.0058924016
0.0026084343 0.074351415 -0.0044656941
0.0025313087 0.075770535 -0.0051833251
0.0024075708 0.077992767 -0.0061732559
-0.0070179463 -0.079152614 -0.005899318
-0.0069118305 -0.077340558 -0.0058825416
-0.0075391023 -0.075754635 -0.0058659059
-0.00045036711 0.074482873 -0.0044574603
-0.00020229304 0.075968519 -0.0050557805
-0.00010077399 0.07823728 -0.0059352415
-0.0083918851 -0.078888111 -0.0058936714
-0.0093368385 -0.077248164 -0.0058761258
-0.0081516411 -0.07572791 -0.0058642533
-0.0030213136 0.074474446 -0.004531675
-0.0027533302 0.076004863 -0.0053255158
-0.002567505 0.078409351 -0.0063059907
-0.011654299 -0.078643486 -0.0058838991
-0.012057688 -0.077183284 -0.0058693099
-0.0057591507 0.074295893 -0.0045804325
-0.0054636113 0.076199539 -0.0055085057
-0.0050272518 0.078205541 -0.0062784911
-0.014629134 -0.076727994 -0.0058590886
-0.015185326 -0.075179935 -0.0058429893
-0.0081767458 0.073981836 -0.0044447249
-0.0079748724 0.076282799 -0.0054637115
-0.0078674192 0.077803165 -0.006409145
-0.01730641 -0.076572284 -0.0058514662
-0.017229119 -0.074902274 -0.0058356877
-0.010436053 0.072268575 -0.004455646
-0.010700947 0.073971272 -0.0045625507
-0.010519946 0.076455064 -0.0055316971
-0.01057226 0.07793168 -0.0063429303
-0.019735074 -0.076208323 -0.0058424077
-0.019871818 -0.074515201 -0.0058260546
-0.01430569 0.071490221 -0.0044541871
-0.013169095 0.073694617 -0.0047117434
-0.013271858 0.076648928 -0.0054362025
-0.011871129 0.07784497 -0.0063995882
-0.022345303 -0.07582812 -0.0058327797
-0.022364125 -0.074050926 -0.0058160485
-0.022920007 -0.072414048 -0.0057990928
-0.015922256 0.071457341 -0.0045278934
-0.015601631 0.073917091 -0.005338673
-0.015691714 0.076644823 -0.0052188835
-0.02413765 -0.075529046 -0.0058258492
-0.02489657 -0.073803522 -0.0058079171
-0.02487612 -0.072236665 -0.0057929419
-0.017407328 0.070731692 -0.0044542947
-0.017507453 0.076872863 -0.0043958314
-0.027378462 -0.073606446 -0.0058002896
-0.027125863 -0.072107822 -0.005786581
-0.033677705 -0.070011601 -0.0057517365
-0.033650964 -0.069399089 -0.0057459893
-0.027169932 0.069577269 -0.0054429448
-0.027026538 0.071833692 -0.005421876
-0.033957236 -0.06938573 -0.0057451632
-0.030372944 0.064529009 -0.0064835926
-0.029732294 0.067445621 -0.0054573496
-0.029021723 0.069482394 -0.0054395995
-0.029041914 0.071943618 -0.0054995604
-0.032347556 0.062149916 -0.0058271233
-0.032003243 0.064432047 -0.0060467557
-0.031790018 0.067018695 -0.0054713311
-0.031679451 0.069604181 -0.0055460893
-0.031434517 0.071943238 -0.0062267189
-0.031498335 0.073537998 -0.0063955933
-0.034409452 0.060270552 -0.0048896745
-0.03458596 0.061760347 -0.0051463428
-0.034445096 0.064381525 -0.0053630853
-0.034385413 0.067133881 -0.0055084345
-0.034208436 0.069464467 -0.0060590301
-0.033972844 0.071493074 -0.006409287
-0.033620451 0.073630586 -0.0063898675
-0.043272335 -0.064397164 -0.0056765792
-0.043288026 -0.062647492 -0.0056599523
-0.043006495 -0.060282495 -0.005638184
-0.036571056 0.06052158 -0.0045073354
-0.037078794 0.062174495 -0.0048932247
-0.037030861 0.064602233 -0.0054675797
-0.036974851 0.067241564 -0.0058699315
-0.036599129 0.069508404 -0.0064221816
-0.035756215 0.071091473 -0.0064090658
-0.044821437 -0.064268209 -0.0056718178
-0.045168269 -0.062606372 -0.0056554303
-0.045093779 -0.06007367 -0.0056315996
-0.040517114 0.060335781 -0.0045000827
-0.039778359 0.062183544 -0.0048969113
-0.039600927 0.064578295 -0.0060137962
-0.039451413 0.067087129 -0.0064235153
-0.038544416 0.068682097 -0.0064255432
-0.047522806 -0.06214343 -0.0056455429
-0.047657892 -0.059889607 -0.0056240414
-0.047935117 -0.058101065 -0.0056062243
-0.042627376 0.059760701 -0.0046324627
-0.042328782 0.06214365 -0.005627139
-0.042146858 0.064659551 -0.0063786241
-0.04212432 0.067239746 -0.006431147
-0.049256086 -0.061354071 -0.0056340536
-0.050003633 -0.059555586 -0.0058434689
-0.050241243 -0.05725868 -0.0055931024
-0.050716277 -0.055218164 -0.0055725337
-0.046146244 0.055569652 -0.0045324187
-0.045642737 0.057391759 -0.0046162824
-0.045136899 0.059585299 -0.0052817063
-0.04500192 0.062135179 -0.0062383185
-0.044782337 0.064616144 -0.0064498493
-0.043781456 0.067229979 -0.0064273644
-0.052038733 -0.058821782 -0.0056036841
-0.052624118 -0.056926649 -0.0059416192
-0.05257418 -0.054654114 -0.0057323156
-0.053446706 -0.052551825 -0.0055410126
-0.048962142 0.052821368 -0.0045520472
-0.048136853 0.054854531 -0.004624377
-0.047762185 0.057258964 -0.0054318411
-0.047539938 0.059720643 -0.0062874854
-0.047506321 0.062165976 -0.0064668902
-0.046499975 0.063865878 -0.0064530401
-0.054507926 -0.056006774 -0.0065714149
-0.055085763 -0.054229598 -0.0063813194
-0.055237122 -0.051880177 -0.0057335766
-0.055607978 -0.049687047 -0.0055089099
-0.050732709 0.052592915 -0.0047645471
-0.050496545 0.054692443 -0.0056721782
-0.050364971 0.057280339 -0.0063401153
-0.050316565 0.059932128 -0.0064817127
-0.050226633 0.061803896 -0.0064640203
-0.057118736 -0.053649284 -0.0065430505
-0.057557918 -0.051643498 -0.0064354939
-0.057608593 -0.049031265 -0.0059414073
-0.058074322 -0.047049955 -0.0054782694
-0.054408044 0.047901142 -0.0045862631
-0.053808607 0.049881857 -0.0046266392
-0.053144537 0.0522299 -0.0051211379
-0.053044695 0.054660138 -0.006249595
-0.052693523 0.057041403 -0.0065035457
-0.052001517 0.059833527 -0.0064787245
-0.059659779 -0.050936736 -0.0065115239
-0.06014711 -0.048899259 -0.006475443
-0.060222626 -0.046420261 -0.0062174015
-0.060540602 -0.044162299 -0.005764436
-0.056799497 0.044939604 -0.0046446025
-0.056301415 0.047206923 -0.00496217
-0.056004595 0.049707059 -0.0053613256
-0.055911861 0.052255794 -0.0057715643
-0.055644017 0.054837331 -0.0059013343
-0.054945312 0.056527339 -0.0065033208
-0.062063888 -0.048137724 -0.0064795348
-0.062703095 -0.046223789 -0.0064598513
-0.062609024 -0.043681506 -0.0063624326
-0.062874317 -0.041249417 -0.0055898707
-0.063252389 -0.038714863 -0.0053874021
-0.05988232 0.04023885 -0.0046464158
-0.059158675 0.042252325 -0.0047541368
-0.058720835 0.044627771 -0.005313457
-0.058585785 0.047181189 -0.0060598147
-0.058365732 0.049677119 -0.0064605335
-0.058146749 0.052408427 -0.0065350807
-0.057626426 0.054722369 -0.0055809338
-0.064556994 -0.0454286 -0.0064481352
-0.064902149 -0.043458942 -0.006428625
-0.065109968 -0.040985901 -0.0062768562
-0.065111764 -0.03837176 -0.0058980691
-0.06538149 -0.036168747 -0.0055583934
-0.065856516 -0.033934724 -0.0053361254
-0.062587507 0.03508947 -0.0046890653
-0.062127147 0.037073676 -0.0046713022
-0.061717641 0.039535426 -0.0050224685
-0.061496679 0.042157628 -0.0057335901
-0.061253756 0.04473307 -0.0064435801
-0.061193038 0.047346473 -0.0065762112
-0.06074309 0.049090799 -0.0065605938
-0.066988736 -0.042588044 -0.0064156447
-0.067398816 -0.040662903 -0.0064398763
-0.067526966 -0.038170204 -0.0065947091
-0.067382388 -0.035516277 -0.0061314311
-0.067421056 -0.033100951 -0.0056872824
-0.067621633 -0.030614045 -0.005334626
-0.067982487 -0.028023807 -0.0052752178
-0.068174377 -0.026111456 -0.0052566458
-0.06581153 0.027343616 -0.0047551515
-0.065705635 0.0292677 -0.0047371476
-0.065324239 0.032186396 -0.0048353393
-0.064454764 0.034621377 -0.0051337769
-0.064284809 0.037155673 -0.0053901244
-0.06420809 0.039670467 -0.0061668917
-0.064086273 0.042225249 -0.0065641152
-0.06412793 0.045300506 -0.0065887589
-0.063425772 0.047379773 -0.006570661
-0.063099623 0.048897676 -0.0065570571
-0.070305005 -0.037260957 -0.0063575092
-0.07009691 -0.035461467 -0.0063409065
-0.069983847 -0.032871503 -0.006316605
-0.069844112 -0.030247577 -0.0060741324
-0.069928788 -0.027760033 -0.005585487
-0.069798417 -0.025216524 -0.005392768
-0.070062868 -0.022723561 -0.0052202055
-0.070309788 -0.020669045 -0.0052001593
-0.068523176 0.022464829 -0.0047952207
-0.067908473 0.024495846 -0.0047773654
-0.067537889 0.0268928 -0.0049607856
-0.067317545 0.029391928 -0.0053192871
-0.067099854 0.031977162 -0.0058735074
-0.066918381 0.034692023 -0.0063314601
-0.066410266 0.037062328 -0.0064295828
-0.066205464 0.039757662 -0.0066365884
-0.066036463 0.042310134 -0.0066127856
-0.066004559 0.044756468 -0.006589646
-0.0719027 -0.037197415 -0.0063533168
-0.071802482 -0.035449907 -0.0063369451
-0.072093315 -0.032676511 -0.0058271759
-0.072031334 -0.030139299 -0.0062360084
-0.072210856 -0.027473971 -0.006739907
-0.072290972 -0.024991127 -0.0064986278
-0.072005309 -0.022473061 -0.0060336813
-0.071900189 -0.01983263 -0.0056103775
-0.072000191 -0.017135249 -0.0053785676
-0.072391525 -0.014763957 -0.0052227997
-0.072487012 -0.01210089 -0.0051139379
-0.072480999 -0.0093930736 -0.0050882744
-0.072382368 -0.0066919243 -0.0050629005
-0.072412297 -0.0048671123 -0.0050455136
-0.072070308 0.0064812731 -0.0049386825
-0.071967803 0.0088292379 -0.0049166521
-0.071712382 0.011667323 -0.0048903232
-0.071025193 0.014187032 -0.0048680147
-0.070638396 0.016700273 -0.0049263113
-0.070377275 0.019246146 -0.0053459625
-0.070163444 0.021802042 -0.0051502022
-0.070001841 0.024409149 -0.0053757536
-0.069971837 0.026896751 -0.0060770605
-0.06979578 0.029471613 -0.0065760422
-0.069564305 0.031848136 -0.0067040226
-0.068748035 0.03431223 -0.0066824914
-0.074252181 -0.026620543 -0.0072476733
-0.074575938 -0.024862666 -0.0072110556
-0.074161798 -0.02272567 -0.0067697172
-0.07459867 -0.019695655 -0.0061811218
-0.074520335 -0.017065568 -0.0062196637
-0.074329726 -0.014465794 -0.0066256337
-0.074211016 -0.011955438 -0.0060638147
-0.074207507 -0.0093156043 -0.0058528748
-0.074208818 -0.0067354785 -0.0054710438
-0.07402993 -0.0041370806 -0.0054440415
-0.073954903 -0.0015349749 -0.0054390742
-0.073780775 0.0010630644 -0.0053584324
-0.073811606 0.0037016436 -0.0055400901
-0.073548935 0.0062734466 -0.0053139208
-0.073483333 0.0088591296 -0.0053835525
-0.073249221 0.011423551 -0.0054304642
-0.073299989 0.014054079 -0.005225658
-0.073021114 0.016719321 -0.005782478
-0.072405756 0.019143196 -0.0065512941
-0.072656877 0.021951029 -0.0063517392
-0.072540648 0.024419151 -0.0063551115
-0.071990922 0.026309101 -0.0067509739
-0.071299031 0.031538144 -0.0067029395
-0.07623177 -0.01944828 -0.006175105
-0.076410681 -0.016945057 -0.0061164317
-0.076250955 -0.014332028 -0.0071265358
-0.07603322 -0.012074923 -0.0068973168
-0.075936086 -0.0092117777 -0.0070484062
-0.076019399 -0.0064601367 -0.00686093
-0.076055296 -0.0040858891 -0.0069558052
-0.075895607 -0.0013832732 -0.0067626876
-0.075963125 0.0012805616 -0.0067330413
-0.076142244 0.0037943849 -0.0066740881
-0.076013416 0.0063535389 -0.0066685486
-0.075857021 0.0089058168 -0.0066049006
-0.075662777 0.011513439 -0.0065634055
-0.075578652 0.014125124 -0.0065369396
-0.075357094 0.016728587 -0.0067530959
-0.074561477 0.022449892 -0.006781667
-0.07439556 0.024044393 -0.0067669409
-0.077802062 0.00410194 -0.0069482652
-0.077709392 0.0064568175 -0.0069261463
-0.077590421 0.0083119385 -0.0069087972
0.072603635 -0.01794407 -0.0045007411
0.072793052 -0.01553188 -0.0044783149
0.073033616 -0.013393409 -0.0044586011
0.073386423 -0.010186048 -0.0044290079
0.073980115 -0.0079523735 -0.0044091679
0.074180059 -0.0054847561 -0.0043862406
0.073922031 -0.0028827842 -0.0043609631
0.074193068 -0.00011263066 -0.0043002344
0.074477553 0.002393184 -0.0039208191
0.074062265 0.0048285173 -0.0041530146
0.074034534 0.0074608754 -0.00426315
0.073821984 0.0099641401 -0.0042388677
0.069699846 -0.027943091 -0.0045889243
0.070024773 -0.025798487 -0.0045693452
0.070378684 -0.023467606 -0.0045480807
0.070845768 -0.020759288 -0.0044143545
0.071198918 -0.018301245 -0.0040982557
0.071217507 -0.015692255 -0.0040031914
0.071409047 -0.013067811 -0.0041140513
0.071429305 -0.010507089 -0.0037382953
0.071326636 -0.007837736 -0.003384043
0.071804836 -0.0053041708 -0.0035867398
0.071884364 -0.0027256277 -0.0034389934
0.072064444 -0.00010403199 -0.0034159161
0.072080016 0.002421322 -0.0033062743
0.072277255 0.0050961035 -0.0035131148
0.072319478 0.0076964088 -0.0037637465
0.072404869 0.010328549 -0.0038297051
0.072236598 0.012806539 -0.0040328531
0.071982913 0.015139643 -0.0041856486
0.07194297 0.01798035 -0.0041586203
0.071879789 0.020225991 -0.004137137
0.066593483 -0.035517495 -0.0046536531
0.066674113 -0.033670627 -0.004636324
0.067260981 -0.030702654 -0.0046095653
0.068145469 -0.028429583 -0.0043725832
0.068370186 -0.025963619 -0.004019055
0.068502672 -0.023423191 -0.0035310299
0.068477243 -0.020741519 -0.0031844373
0.068632156 -0.01817177 -0.0030613109
0.068849958 -0.015581197 -0.0028964207
0.069295898 -0.013128241 -0.0026590256
0.069435954 -0.010439382 -0.0024623575
0.069504917 -0.007758148 -0.0025971066
0.069575466 -0.0053463625 -0.0024724093
0.069614373 -0.0025347061 -0.002612439
0.06955301 -2.6365742e-05 -0.0027944127
0.069695204 0.0025914528 -0.0027631782
0.069766268 0.0052036038 -0.0026396073
0.069899127 0.0077659679 -0.0024313065
0.069967352 0.010400943 -0.0026187084
0.070036016 0.013089984 -0.0029346636
0.070416495 0.015434376 -0.0034807203
0.070303991 0.018143561 -0.0036532218
0.070419006 0.020740855 -0.0040228753
0.070022136 0.022808488 -0.0041084494
0.064572498 -0.038414165 -0.0046765488
0.065142125 -0.036211938 -0.0044879206
0.065246642 -0.033672988 -0.0041329935
0.06537649 -0.031035695 -0.0037749568
0.065578401 -0.028474012 -0.0032392477
0.065720096 -0.025858045 -0.002787916
0.066383734 -0.02354116 -0.0025395975
0.066901237 -0.02065777 -0.0025133484
0.066876724 -0.018316058 -0.0024911463
0.067221887 -0.015728295 -0.0024673217
0.068311878 0.0059461584 -0.0022643118
0.068440825 0.0088998992 -0.0022365972
0.068218112 0.010934445 -0.0022167808
0.067829803 0.013274491 -0.0021938086
0.067660473 0.015709089 -0.0022438909
0.067773864 0.018140839 -0.0024767173
0.068424314 0.01986081 -0.0031326564
0.068513729 0.023657285 -0.0040969397
0.068310514 0.025007688 -0.0040836404
0.06150154 -0.043159466 -0.0047144713
0.062114242 -0.041097473 -0.0046755304
0.062491674 -0.038691841 -0.004309556
0.062585555 -0.036038067 -0.0033006056
0.062712081 -0.033600532 -0.0028897657
0.063215815 -0.031062244 -0.0026734653
0.063623533 -0.028502172 -0.0025802907
0.064000353 -0.02680818 -0.0025650582
0.065968186 0.01648408 -0.0021590311
0.066049621 0.018349605 -0.0021415122
0.065329686 0.021838807 -0.0021067809
0.065221816 0.023411456 -0.0020916814
0.064560376 0.025267856 -0.0020725224
0.058564711 -0.048308354 -0.0047566025
0.059079058 -0.0462518 -0.0045530908
0.059705369 -0.043840975 -0.0042801611
0.059909329 -0.041292839 -0.0035383434
0.060011115 -0.038515925 -0.0027579556
0.060595956 -0.036179725 -0.0026462222
0.061034929 -0.033798501 -0.0026245406
0.062191013 0.032006446 -0.0020031955
0.062290613 0.033336412 -0.0019907968
0.056088872 -0.050905362 -0.0047756028
0.056771159 -0.048829246 -0.0046574976
0.056918554 -0.046365216 -0.0035536366
0.057101235 -0.04373436 -0.0028226089
0.057787094 -0.041333936 -0.0026886957
0.058468916 -0.039338857 -0.0026712455
0.061419122 0.032164734 -0.0019999312
0.06107083 0.033734281 -0.0019843117
0.059960052 0.042405047 -0.0038996227
0.059986915 0.043926086 -0.0038852307
0.05332667 -0.053062148 -0.0047897445
0.054161381 -0.051295064 -0.0047177458
0.054365035 -0.048874978 -0.0037249278
0.054408889 -0.04630883 -0.0027698637
0.054939579 -0.044423472 -0.0027113685
0.057809222 0.037960615 -0.0019367399
0.057580385 0.039553761 -0.0019893604
0.058278978 0.042347148 -0.0034533732
0.058165517 0.044437144 -0.0038073023
0.057292745 0.046382315 -0.0038557847
0.050301965 -0.055469315 -0.0048056315
0.05127231 -0.053599492 -0.0046055275
0.051576685 -0.051231194 -0.0039071459
0.051825374 -0.048862379 -0.0030079789
0.052594516 -0.047237512 -0.0027327107
0.056091387 0.039999731 -0.0019134497
0.05574495 0.042223979 -0.0024915757
0.05580499 0.044815436 -0.0029980626
0.055614032 0.047293738 -0.003395491
0.054971155 0.049130686 -0.0038244196
0.047738589 -0.057670459 -0.0048206486
0.048426591 -0.056295112 -0.00445204
0.048872903 -0.053718265 -0.00345659
0.049138457 -0.051285151 -0.0028780762
0.050038833 -0.049484596 -0.0027481806
0.053724661 0.042873818 -0.0018808638
0.053320885 0.045027494 -0.0020487579
0.053242311 0.047526896 -0.0026472688
0.053321354 0.05010904 -0.0032984808
0.052914821 0.05201225 -0.00366743
0.04541355 -0.061099324 -0.0046385545
0.045541406 -0.058929451 -0.0039733774
0.046193283 -0.056286048 -0.0032405606
0.04640891 -0.053865343 -0.0027979554
0.04709148 -0.051981609 -0.0027651261
0.051575698 0.045978859 -0.0018464663
0.050922748 0.047902893 -0.0020013948
0.050779764 0.050327856 -0.0025390093
0.050806034 0.052962307 -0.0032436089
0.050386876 0.054799631 -0.0037602209
0.042796835 -0.062937468 -0.0048593343
0.043260854 -0.061232958 -0.0045621237
0.043493841 -0.058701191 -0.0033519377
0.043799561 -0.056474511 -0.0028003145
0.044685911 -0.054754436 -0.002785939
0.049102221 0.048786554 -0.0018141917
0.048474565 0.050614581 -0.0019830079
0.048261475 0.053031594 -0.0026919539
0.04825573 0.055396445 -0.0034639346
0.047303673 0.057175159 -0.0037306219
0.04047614 -0.063504413 -0.0048594237
0.040959455 -0.060968127 -0.0038591675
0.041112617 -0.058772974 -0.002833839
0.041990742 -0.057025105 -0.0028013142
0.045978781 0.051241875 -0.0017838036
0.045786437 0.053113244 -0.0020513323
0.045804091 0.055607896 -0.0026640117
0.045686595 0.057700824 -0.0032001687
0.037505675 -0.065631881 -0.0048727966
0.037985519 -0.063719161 -0.0044069854
0.03819254 -0.061158594 -0.0032185521
0.038923763 -0.059487227 -0.0028176552
0.043748379 0.053561918 -0.0017566788
0.043342318 0.055837721 -0.0018624754
0.043350175 0.058346529 -0.0028061476
0.043244988 0.060417823 -0.0036055413
0.03536281 -0.065683991 -0.0046419767
0.035463572 -0.063604601 -0.0038934895
0.035606146 -0.061139412 -0.0030601944
0.040889699 0.056286812 -0.0017244135
0.040833391 0.058650158 -0.0020688926
0.040835176 0.061182797 -0.0029688261
0.040345207 0.063328013 -0.0036564253
0.031736609 -0.067457795 -0.0048769028
0.032606874 -0.065899506 -0.0040723477
0.032901525 -0.063551478 -0.0031034285
0.033703744 -0.061506521 -0.0028248935
0.039180767 0.057007253 -0.0017135739
0.03842254 0.05882794 -0.0017113711
0.038104791 0.061123196 -0.0025402538
0.038391255 0.063783355 -0.0036476441
0.038021535 0.06549567 -0.0036305476
0.029212499 -0.070213959 -0.004897302
0.029688176 -0.068454921 -0.0046701762
0.030045718 -0.065885425 -0.0031190219
0.030986821 -0.0640852 -0.002843095
0.035029683 0.059661582 -0.0016788915
0.035732843 0.061455797 -0.0020092665
0.035769291 0.063855253 -0.0032270732
0.035759035 0.065833405 -0.0036221913
0.027187506 -0.070740774 -0.0048744394
0.027450712 -0.06841138 -0.003925221
0.027526034 -0.066287346 -0.0030286049
0.033661023 0.059809409 -0.0016743781
0.033109616 0.061507788 -0.001941013
0.033170193 0.064029612 -0.0025956607
0.033206653 0.066518433 -0.0034746896
0.032577783 0.068376608 -0.0035907486
0.024100304 -0.072435915 -0.0049066641
0.024677215 -0.070916697 -0.0043873144
0.024813822 -0.068267725 -0.0035648546
0.025128804 -0.066401735 -0.0029231787
0.030749051 0.062273815 -0.0016443421
0.030580547 0.064079449 -0.0021384759
0.030673949 0.066747911 -0.0033129854
0.030680483 0.068671137 -0.0035836808
0.021958908 -0.072428152 -0.0049017281
0.022151593 -0.07087639 -0.0044258679
0.022269925 -0.068260357 -0.0028919063
0.023085061 -0.066687837 -0.0028497539
0.028329711 0.062530965 -0.0016363768
0.028033743 0.064353496 -0.0019905476
0.028076671 0.067018084 -0.0029557571
0.027976172 0.068910755 -0.0035466636
0.019199833 -0.072552264 -0.0048028543
0.019251313 -0.070792355 -0.0038174535
0.019693131 -0.068473369 -0.0028590411
0.025521109 0.064706407 -0.0016094811
0.025494764 0.066997014 -0.0022288379
0.025520481 0.06933441 -0.0032538567
0.024828095 0.071005672 -0.0035481295
0.01588564 -0.074668899 -0.004909073
0.016714659 -0.072938658 -0.0046269363
0.016848506 -0.070580736 -0.0034607027
0.01727997 -0.06898506 -0.0028582464
0.022861708 0.065458201 -0.001596128
0.022844523 0.067175627 -0.0020298543
0.02301342 0.06970907 -0.0030738311
0.023068959 0.071227558 -0.003542037
0.014099667 -0.074754074 -0.0049058455
0.014231256 -0.072945751 -0.0043055154
0.014349782 -0.0704735 -0.0031470142
0.014386859 -0.068844929 -0.0028503234
0.020492798 0.065651953 -0.0015888793
0.020362344 0.067283943 -0.0020231572
0.020454969 0.069670841 -0.0032507777
0.020406954 0.071425803 -0.003534076
0.011360326 -0.074929766 -0.0049012536
0.011613271 -0.072864279 -0.0041820807
0.012059234 -0.070602566 -0.0028617776
0.013013043 -0.069052003 -0.0028491635
0.017873069 0.067531832 -0.0017715486
0.017782282 0.069817193 -0.0030169699
0.017851233 0.071866691 -0.0035240566
0.0085931076 -0.076933555 -0.0049138889
0.0088613555 -0.075385891 -0.0048998701
0.0089835403 -0.072714694 -0.0043052249
0.0089929411 -0.070780277 -0.0029473444
0.015172412 0.067827262 -0.001556217
0.015205266 0.06995374 -0.0025985411
0.015273268 0.072221868 -0.0035148147
0.0062968545 -0.075243935 -0.0048926654
0.0064051612 -0.072705373 -0.003868687
0.0069291894 -0.070950747 -0.0028532408
0.012618009 0.068186492 -0.0015469457
0.012752406 0.070152558 -0.0022785754
0.0128629 0.072535649 -0.0034699573
0.0036058272 -0.075138211 -0.0047695637
0.0037470483 -0.072618037 -0.0033348119
0.0098437304 0.068181463 -0.0015406706
0.0099921562 0.070244521 -0.0018702098
0.010012065 0.07274095 -0.0033353537
0.009814362 0.074436292 -0.003481301
0.00080516399 -0.076593764 -0.0048928759
0.0010347252 -0.075092643 -0.0047791889
0.0012354373 -0.072542153 -0.0033982447
0.0073726554 0.068155766 -0.0015352843
0.0075222338 0.070352457 -0.0021050884
0.0075189443 0.072949059 -0.0034544996
0.0073419125 0.074654333 -0.0034736157
-0.0022396357 -0.076576568 -0.0048857569
-0.0015843087 -0.07495819 -0.0046938448
-0.0013902743 -0.072645694 -0.0032878718
0.0052178428 0.068748198 -0.0015246246
0.0048924591 0.07052248 -0.0019000039
0.0049070595 0.072983727 -0.0030585206
0.0057100439 0.074615367 -0.0034702271
-0.0041267346 -0.076532781 -0.0048810607
-0.0041338447 -0.074845575 -0.0042859884
-0.0039507044 -0.072243951 -0.0029218651
-0.0045078015 -0.070779659 -0.0028255219
0.0017894544 0.068830289 -0.0015160295
0.0022534516 0.07060837 -0.0017909639
0.0022860942 0.073230207 -0.0027803082
0.0017083333 0.074789964 -0.0034594303
-0.0058688312 -0.076405369 -0.0048758429
-0.0066333301 -0.074727766 -0.0045248335
-0.0065792338 -0.07233049 -0.0030543148
-0.00044797128 0.068600826 -0.0015131985
-0.00031330273 0.070665598 -0.0019563169
-0.00017700787 0.073404282 -0.0028983261
0.00063095079 0.074836977 -0.0034565232
-0.0099505205 -0.076212592 -0.0048646759
-0.0093025845 -0.074606597 -0.004656502
-0.0092117405 -0.072089523 -0.0033208663
-0.010178939 -0.070454344 -0.0028094819
-0.0040578451 0.066785403 -0.0015220777
-0.0032501316 0.068503194 -0.001654417
-0.0028392223 0.070687383 -0.0023991694
-0.0027678858 0.073345348 -0.0028961999
-0.011663618 -0.0760938 -0.0048596365
-0.011896721 -0.074554332 -0.0046546706
-0.011777876 -0.071899056 -0.0036389229
-0.01181298 -0.070123456 -0.0028026265
-0.0058288472 0.066655025 -0.0015192833
-0.0057201362 0.068537273 -0.0016705806
-0.0055544875 0.070865273 -0.002450485
-0.0053867642 0.073152624 -0.0031080774
-0.014380451 -0.074200809 -0.0046926597
-0.014369648 -0.07184875 -0.0034754148
-0.014382141 -0.069742203 -0.0027932017
-0.0077201119 0.066862129 -0.0015129691
-0.0082517434 0.068587363 -0.0019596778
-0.0081409123 0.071081519 -0.0028168312
-0.0079994164 0.072846025 -0.0033724008
-0.017053273 -0.07371363 -0.0048248139
-0.017008537 -0.071661949 -0.0036001673
-0.016888365 -0.069475405 -0.0027849763
-0.011723004 0.067223676 -0.0015004114
-0.010949022 0.068640284 -0.0021300928
-0.010756537 0.071054697 -0.0032758994
-0.010808985 0.072723791 -0.0034504584
-0.019604485 -0.073369741 -0.0048157247
-0.019535266 -0.071494743 -0.0041493201
-0.019727204 -0.069128521 -0.0030024555
-0.013595388 0.067149632 -0.0014968065
-0.013438167 0.068698294 -0.0026062899
-0.013229309 0.071198374 -0.0034594093
-0.012920419 0.072979197 -0.0034432127
-0.021545036 -0.072843038 -0.0048062522
-0.022003796 -0.071259931 -0.0044340082
-0.022060031 -0.068908662 -0.0032677157
-0.022292126 -0.067442395 -0.0027532347
-0.015363635 0.067320205 -0.0014911796
-0.015954822 0.069079794 -0.0022258668
-0.015905434 0.070469908 -0.0034601884
-0.024703281 -0.071009055 -0.0047816918
-0.024577368 -0.068795942 -0.0038924078
-0.024782229 -0.066633746 -0.0030443084
-0.019882128 0.064672217 -0.0015059671
-0.02007132 0.06509582 -0.0015015182
-0.017865982 0.068633936 -0.0014729757
-0.027406374 -0.070932023 -0.0047747865
-0.027228188 -0.068666317 -0.0040285387
-0.027080083 -0.066194266 -0.0034842724
-0.030319048 -0.076314062 -0.0030225241
-0.030164665 -0.073549785 -0.0043487702
-0.029909845 -0.071106002 -0.004376756
-0.029883835 -0.068459146 -0.0042884285
-0.029847831 -0.065984622 -0.0036898484
-0.029954966 -0.063673764 -0.0029128664
-0.031685773 -0.075521506 -0.0038084362
-0.031861734 -0.073593222 -0.0037897192
-0.03222141 -0.070956416 -0.0039018106
-0.032235049 -0.06835302 -0.0045668553
-0.032163747 -0.065822512 -0.0036635888
-0.03215472 -0.063241154 -0.0032493281
-0.032516211 -0.061684869 -0.0026752679
-0.033857368 -0.068759277 -0.0047394014
-0.035050511 -0.065194927 -0.002702882
-0.034804478 -0.06298586 -0.0026825112
-0.034746725 -0.06140551 -0.0026675381
-0.037320919 -0.064920753 -0.0026950659
-0.037373219 -0.062918186 -0.0026760167
-0.037616052 -0.060743947 -0.0026547995
-0.033104625 0.059122708 -0.0015283856
-0.038804203 -0.064299099 -0.0026857229
-0.03976525 -0.062699601 -0.0026684643
-0.039635029 -0.060350459 -0.0026465007
-0.040159129 -0.058466613 -0.0026273653
-0.034516692 0.058969893 -0.0015981229
-0.04354801 -0.067025781 -0.0047008414
-0.043490399 -0.065844588 -0.004689787
-0.042842865 -0.059115309 -0.0046274257
-0.042544611 -0.057592239 -0.0032803342
-0.043318059 -0.055898987 -0.0025957569
-0.037556738 0.06006036 -0.0031457725
-0.037745818 0.06117266 -0.0034984585
-0.044831678 -0.06669993 -0.0046948041
-0.045077905 -0.065676384 -0.0046845805
-0.044531874 -0.058949102 -0.004621991
-0.044893969 -0.057345107 -0.0040788893
-0.0450406 -0.055278167 -0.0027360113
-0.040511459 0.05251471 -0.0015741114
-0.040477287 0.054214485 -0.0016057868
-0.040481482 0.056842361 -0.0021636556
-0.040010903 0.059424292 -0.0032754568
-0.039184973 0.061174843 -0.0034951498
-0.047397688 -0.057001308 -0.0043175491
-0.047524367 -0.054730002 -0.0031125436
-0.047839679 -0.052378908 -0.0025521377
-0.048139945 -0.050243631 -0.0025310845
-0.0430368 0.052139554 -0.0016688067
-0.042600673 0.054364685 -0.0022331392
-0.042597421 0.05721204 -0.0028281955
-0.042014658 0.05889231 -0.0034703487
-0.049360298 -0.056517977 -0.0045879227
-0.049729235 -0.054461878 -0.0041675568
-0.049960159 -0.052160226 -0.0034556196
-0.049950376 -0.049605116 -0.002732262
-0.050408278 -0.047727659 -0.0025020596
-0.046075411 0.049824063 -0.0015869155
-0.045445211 0.05180252 -0.0021717935
-0.045275465 0.054418869 -0.0030510803
-0.044763926 0.056873564 -0.0033959157
-0.044026781 0.058589961 -0.0035085711
-0.051821042 -0.053542513 -0.0045540864
-0.052402042 -0.051802509 -0.0043913084
-0.052486129 -0.049332369 -0.0034338974
-0.05270835 -0.046808884 -0.0025408454
-0.053079046 -0.044795159 -0.0024681359
-0.049338344 0.0426355 -0.0016476427
-0.048799183 0.044026121 -0.001635792
-0.04897774 0.047175303 -0.001636726
-0.048205748 0.049413104 -0.002173601
-0.0479641 0.051961217 -0.0030624315
-0.047378357 0.054175634 -0.0035428186
-0.054232944 -0.051062621 -0.004525031
-0.054827124 -0.048816241 -0.0042257933
-0.054919429 -0.046676241 -0.0035104156
-0.055011984 -0.044009734 -0.0026478211
-0.055505179 -0.041894346 -0.0024351312
-0.051273845 0.042167407 -0.0016477343
-0.051040091 0.044329599 -0.0016278249
-0.050913326 0.046972185 -0.0020516766
-0.050775345 0.049406756 -0.003056926
-0.050488334 0.051516589 -0.0035609291
-0.056492336 -0.047982868 -0.0044906805
-0.057306655 -0.046219323 -0.0044357809
-0.0574288 -0.044016298 -0.0038866983
-0.05727439 -0.04143101 -0.0027293977
-0.057871457 -0.039103627 -0.0024032178
-0.05818563 -0.037286423 -0.002385298
-0.054349624 0.039879195 -0.0016623168
-0.053808596 0.041845709 -0.002107936
-0.053500056 0.0444819 -0.0025205656
-0.053397197 0.046979245 -0.0031701622
-0.052848212 0.049375661 -0.003553099
-0.052268006 0.051136795 -0.0035604199
-0.059054881 -0.045455284 -0.0044608582
-0.059528224 -0.043556295 -0.0043337015
-0.059833888 -0.041191325 -0.0035184978
-0.05979155 -0.038654458 -0.0031034541
-0.059893142 -0.036116023 -0.0026103831
-0.060433406 -0.033917472 -0.0023481871
-0.057127707 0.028395377 -0.0024754773
-0.057431366 0.03720922 -0.0018234594
-0.056461681 0.039391022 -0.0021340633
-0.056265995 0.041946173 -0.0029226711
-0.055917766 0.044293053 -0.0034016322
-0.055350762 0.046457879 -0.0035977759
-0.061797678 -0.040462937 -0.0044072825
-0.062017556 -0.038429897 -0.0042238343
-0.06220803 -0.035886448 -0.0036676712
-0.062235683 -0.033227857 -0.0026848337
-0.06255424 -0.030881831 -0.0023390702
-0.062899977 -0.028721813 -0.0022932843
-0.059241451 0.028986931 -0.0021661823
-0.060282566 0.031233987 -0.0017307276
-0.059762102 0.034554482 -0.0020576874
-0.059082288 0.036812935 -0.0026806311
-0.058827102 0.03949929 -0.0033630873
-0.05820768 0.041729234 -0.0036016209
-0.057640698 0.043455672 -0.0036209838
-0.063637406 -0.037391208 -0.004373922
-0.064297348 -0.035469547 -0.004247867
-0.064733796 -0.03316091 -0.0038187683
-0.064651787 -0.03064438 -0.0034212195
-0.064633235 -0.028034421 -0.0028103476
-0.064709306 -0.025355322 -0.0025249848
-0.064894646 -0.023103001 -0.0022688569
-0.065259926 -0.020934872 -0.0022140827
-0.064914495 -0.016986813 -0.0021774191
-0.065049544 -0.016115606 -0.0021688642
-0.064201199 0.0033169109 -0.0019865318
-0.063529313 0.018707469 -0.0018421243
-0.063244276 0.0252368 -0.0017808606
-0.062859744 0.027043918 -0.0018555041
-0.062336363 0.02927056 -0.0020564313
-0.061936986 0.031736944 -0.0026616224
-0.061588734 0.034310404 -0.0033431416
-0.061102748 0.036831744 -0.0036333569
-0.060517967 0.038955249 -0.0036571161
-0.066288441 -0.032517418 -0.0043216348
-0.06654463 -0.030248327 -0.0042995927
-0.066846922 -0.027730243 -0.0040916563
-0.067046978 -0.025273828 -0.0036778348
-0.066831805 -0.022745201 -0.0030276654
-0.06685549 -0.020068759 -0.0022856456
-0.066782326 -0.017339595 -0.0021766317
-0.066907853 -0.015004711 -0.0022059134
-0.066647179 -0.012205875 -0.0021427441
-0.066812821 -0.0098736249 -0.0021057355
-0.067119882 -0.0070726783 -0.0020783844
-0.066508308 -0.0049309665 -0.0020595619
-0.066763319 0.0017153767 -0.0019958655
-0.06589283 0.0033061558 -0.0019828887
-0.066293396 0.0055737058 -0.0019604117
-0.066829935 0.0073255105 -0.0019425149
-0.066276863 0.011499382 -0.0019041842
-0.065977469 0.013737467 -0.0018837348
-0.06571728 0.016514415 -0.0019321035
-0.065344155 0.018896673 -0.0019890179
-0.065515451 0.021168228 -0.0025286037
-0.065157816 0.024296116 -0.0030315337
-0.064611584 0.026684105 -0.0029206811
-0.064491555 0.029282447 -0.0032690566
-0.064310513 0.031753123 -0.0036989092
-0.063807122 0.033684671 -0.0036995811
-0.068521187 -0.024621949 -0.0042417096
-0.068959646 -0.022340743 -0.0041210372
-0.069151893 -0.019900899 -0.0034852633
-0.069356352 -0.017408162 -0.0032592232
-0.069303334 -0.014760409 -0.0032587503
-0.069008723 -0.012201058 -0.0030072748
-0.068969838 -0.0095720328 -0.0025512183
-0.068850398 -0.0070471927 -0.0024404626
-0.068929024 -0.0045394069 -0.0021931981
-0.069274917 -0.0018234407 -0.0020825774
-0.068729065 0.000817416 -0.0019999645
-0.068421945 0.0033766425 -0.0020205374
-0.068321392 0.0060044043 -0.0021255994
-0.068165369 0.0085457927 -0.0023546077
-0.067947783 0.011201177 -0.002488913
-0.068008959 0.013821384 -0.002772351
-0.0678588 0.016571004 -0.0030170742
-0.06778799 0.019054243 -0.0031705289
-0.067508444 0.021525947 -0.0034534412
-0.067037888 0.023944438 -0.0037670385
-0.066315345 0.026255501 -0.003764299
-0.070847996 -0.018881163 -0.0041819271
-0.071051933 -0.017102331 -0.004164638
-0.071236387 -0.014547678 -0.0040912032
-0.07125058 -0.012008103 -0.0039687962
-0.071270421 -0.0094697606 -0.0038345859
-0.071158968 -0.0068590194 -0.0037708473
-0.07111229 -0.0042555588 -0.0037092499
-0.071006857 -0.0016884825 -0.003340662
-0.071131833 0.00072122156 -0.0036291988
-0.07075315 0.0036361869 -0.0034231085
-0.070743926 0.0061066989 -0.0036237373
-0.070653684 0.0086931866 -0.0033695407
-0.07044138 0.011273962 -0.0034463492
-0.07004945 0.013684548 -0.0037686191
-0.06954664 0.016387582 -0.0038505062
-0.069314592 0.018961091 -0.0038266177
-0.069101095 0.021134282 -0.0038064681
-0.072734326 -0.0035552138 -0.0040322733
-0.072718732 -0.0016834864 -0.0040146052
-0.0726045 0.00093290466 -0.003990056
-0.072479077 0.0038058127 -0.00396307
-0.072323062 0.0060210475 -0.00394245
-0.072107919 0.0087753776 -0.0039167935
-0.072020575 0.010776148 -0.0038980206
0.067691796 -0.014271993 -0.001454566
0.068145111 -0.01271438 -0.0014407865
0.068297066 -0.010447636 -0.0014196242
0.068283923 -0.0078798886 -0.0013952751
0.068432808 -0.0054936362 -0.0013730172
0.068466216 -0.0026282682 -0.0013459225
0.068406999 0.00015494996 -0.0013194099
0.068584658 0.0025948358 -0.0012966795
0.068530731 0.0049452148 -0.0012742686
0.068653502 0.0077574914 -0.0012478814
0.068728529 0.0094760992 -0.001231741
0.064728089 -0.02478707 -0.0015475057
0.065471016 -0.022866918 -0.0015309055
0.065775506 -0.020654488 -0.0015105917
0.065760948 -0.018021125 -0.0014856022
0.06602522 -0.015424307 -0.0013144851
0.066315703 -0.012812329 -0.00097270234
0.066314653 -0.010317395 -0.0012004658
0.066437483 -0.0077781291 -0.0012788796
0.066640839 -0.0051674899 -0.0010631591
0.066778056 -0.0025460853 -0.00078567053
0.066825449 2.1872809e-05 -0.00062258722
0.067013793 0.002720553 -0.00085595949
0.067021005 0.0053138961 -0.0010239761
0.067153379 0.0078250356 -0.0010464983
0.067097381 0.010373694 -0.0010550313
0.06684304 0.012901507 -0.0011948925
0.066549674 0.015345573 -0.0011711208
0.062130723 -0.030611979 -0.001596733
0.062516414 -0.028320698 -0.001575872
0.063108332 -0.025702411 -0.0014908065
0.063089356 -0.023141105 -0.0011199026
0.063529655 -0.020666344 -0.00067476474
0.063637465 -0.018036876 -0.0006685105
0.063693352 -0.015387563 -0.00048637565
0.063769162 -0.012840781 -0.00043208833
0.06422659 -0.010379041 -0.00040971511
0.064464442 -0.0075131929 -0.00038303813
0.064512774 -0.004955099 -0.00035887631
0.064560249 -0.0023968373 -0.00033477054
0.064412564 0.00012244424 -0.00031064817
0.064768672 0.002846994 -0.00028553652
0.064700581 0.0054156147 -0.00026105359
0.064561345 0.0080080563 -0.0002361674
0.064807229 0.010571277 -0.00022619247
0.065011747 0.01323307 -0.00050343515
0.064899996 0.015694499 -0.0010439195
0.064884454 0.018239018 -0.0011397304
0.064349636 0.021196773 -0.001110536
0.064400531 0.023427965 -0.0010895097
0.064268179 0.02563728 -0.0010683021
0.059010405 -0.037825692 -0.001658099
0.059466984 -0.03588172 -0.0016406039
0.059864827 -0.033381429 -0.0014108911
0.060255267 -0.030897386 -0.00097200379
0.060370717 -0.028243508 -0.0006716855
0.060517352 -0.025584633 -0.0005596166
0.060595043 -0.023109561 -0.0007443988
0.061315298 -0.020724459 -0.00050110626
0.061010703 -0.018013706 -0.00047486945
0.061136823 -0.015131315 -0.00044778033
0.061472207 -0.013002758 -0.00042827285
0.063199095 0.0065336907 -0.00024696178
0.063127965 0.0082309349 -0.00023073482
0.063091688 0.010704045 -0.00020718554
0.062915847 0.013459116 -0.00018061398
0.06278111 0.015824273 -0.00019715974
0.062600411 0.018637011 -0.00014523351
0.062578216 0.021183833 -0.00024182689
0.062595561 0.023594063 -0.00087543862
0.062687837 0.026282482 -0.0010584396
0.062254064 0.02861085 -0.0010354891
0.061933227 0.031061353 -0.0010115488
0.056124691 -0.042569764 -0.0016964781
0.056721028 -0.040939547 -0.0016823071
0.057354908 -0.038503621 -0.0016605967
0.057441697 -0.035875741 -0.0012332125
0.057673439 -0.033454899 -0.00067922153
0.058063574 -0.030943852 -0.00059058424
0.058671545 -0.028192446 -0.00056594226
0.057915371 -0.025528964 -0.00053901784
0.058617409 -0.023540584 -0.0005217219
0.059289686 -0.018151328 -0.00047210883
0.059440486 -0.014697007 -0.00043969744
0.060147975 0.021622596 -9.6895121e-05
0.060094781 0.023761423 -0.00042379499
0.060257457 0.026377214 -0.00043673598
0.060188912 0.029038321 -0.00058365555
0.060387984 0.031540975 -0.0010033217
0.06000986 0.033981312 -0.00097936206
0.059729174 0.035898287 -0.0009606473
0.053254008 -0.04557522 -0.0017184347
0.05432288 -0.04337446 -0.0016998734
0.054648519 -0.04109326 -0.0015539739
0.054897517 -0.038418204 -0.00087651913
0.055176374 -0.035975557 -0.00063173217
0.055864252 -0.034152765 -0.00061601878
0.056212455 -0.025739748 -0.00053705194
0.058545832 0.022468092 -8.5232605e-05
0.058373924 0.024136133 -6.906729e-05
0.058142014 0.026602842 -4.50722e-05
0.057751771 0.02912629 -3.4125551e-05
0.057929624 0.031720597 -0.00046358866
0.057885569 0.034181911 -0.00090590632
0.057881486 0.036763117 -0.00094807666
0.056954108 0.038583554 -0.00092881487
0.05074542 -0.047970328 -0.0017354158
0.051657338 -0.046025697 -0.001620349
0.051805735 -0.043471087 -0.0011395724
0.052344926 -0.04104311 -0.00074882526
0.052793011 -0.038599286 -0.00065113755
0.053442456 -0.036773875 -0.00063534128
0.055184908 0.029525872 -1.071833e-05
0.055477507 0.031978998 1.189005e-05
0.055275843 0.034410335 -0.00023384084
0.055236716 0.036964368 -0.00079383492
0.055312604 0.039501842 -0.00091625296
0.054672047 0.041292042 -0.00089794805
0.048468716 -0.0501251 -0.0017506329
0.049024783 -0.048573669 -0.0016550823
0.049283441 -0.046189025 -0.00099053676
0.050005827 -0.043902319 -0.00069513149
0.053252261 0.029341193 -7.9652527e-06
0.052885063 0.034912962 4.5738125e-05
0.052770536 0.037070684 3.601599e-05
0.052909818 0.039682765 -0.0003573962
0.052945193 0.042109519 -0.00088611734
0.052244648 0.044257335 -0.00086426944
0.04540094 -0.05305934 -0.001771464
0.046221435 -0.050968248 -0.0017533603
0.046535101 -0.04860549 -0.0011032303
0.046839613 -0.046758384 -0.00071499636
0.051249985 0.035528831 5.5283512e-05
0.051287442 0.037187729 7.0928596e-05
0.050892156 0.040211134 7.1949326e-05
0.050486047 0.042383056 -0.00050295994
0.05053968 0.04500477 -0.00085315283
0.050026499 0.047234334 -0.00083091308
