# .PCD v0.7 - Point Cloud Data file format
VERSION 0.7
FIELDS x y z
SIZE 4 4 4
TYPE F F F
COUNT 1 1 1
WIDTH 1245
HEIGHT 1
VIEWPOINT 0 0 0 1 0 0 0
POINTS 1245
DATA ascii
0.015920518 0.05614654 -0.0016800375
-0.022754848 -0.055314887 -0.0011497261
-0.023247493 -0.057675436 -0.0021220832
0.018613843 0.059520353 -0.003722623
0.018912202 0.057105236 -0.0025884272
0.018411748 0.05547709 -0.0016905146
-0.019928543 -0.056348875 -0.0011284291
-0.02079504 -0.058839295 -0.0021038807
-0.020375719 -0.06072088 -0.0025642917
0.022371694 0.055846792 -0.0021703155
0.021544753 0.054022618 -0.0016992198
-0.017041771 -0.057526972 -0.00083673571
-0.017918924 -0.059889976 -0.0019935365
-0.018368138 -0.061414815 -0.0025715695
0.025488125 0.057208415 -0.0037480679
0.024900248 0.055402584 -0.0029306645
0.024219779 0.053164136 -0.0017422246
-0.014208708 -0.058290236 -0.00080228003
-0.014949309 -0.060798302 -0.0019585495
-0.015946876 -0.062305253 -0.0025799733
0.028027173 0.054012809 -0.0028825258
0.027330741 0.052056845 -0.0017522541
-0.011582846 -0.059340995 -0.00076130102
-0.013367094 -0.061372817 -0.0023400469
0.02973669 0.053416517 -0.0030216496
0.029915148 0.05092166 -0.0017425767
-0.0084268525 -0.06019238 -0.00071894302
0.034041125 0.051826589 -0.0029987041
0.032641798 0.049729832 -0.0019928606
0.032982443 0.047668934 -0.0017223706
-0.0044929497 -0.058882911 -0.00067760336
-0.0055574365 -0.060797542 -0.0011437028
-0.0052380385 -0.063197337 -0.0018709707
0.036006033 0.051042639 -0.0033670564
0.035478026 0.048666161 -0.0022141966
0.034941047 0.046813529 -0.0017281291
-0.0019127559 -0.059495069 -0.00068922213
-0.003342608 -0.061291806 -0.0011559124
-0.0044587608 -0.063605614 -0.0024991462
0.039267309 0.049459614 -0.0037337691
0.038277261 0.047631096 -0.0026833965
0.03783083 0.045121744 -0.0018364644
0.00050320104 -0.06012157 -0.001022076
0.0012169983 -0.062806942 -0.0026836325
0.00064177252 -0.064935736 -0.0026638303
0.040230088 0.048677482 -0.0037755156
0.040859088 0.046415936 -0.0034823266
0.040149 0.043931425 -0.0025348801
0.039930873 0.041848019 -0.001721615
0.0036771931 -0.0616582 -0.002207662
0.0022893399 -0.063466564 -0.0026853606
0.0013043862 -0.065141842 -0.002666397
0.043258443 0.045038208 -0.0037667304
0.042889312 0.042915296 -0.00285953
0.042052202 0.040255472 -0.0018249252
0.042145729 0.038144406 -0.0017073222
0.0079224054 -0.060033977 -0.0010323545
0.0066860113 -0.061530735 -0.0015736485
0.045118228 0.043777332 -0.003768862
0.045417413 0.041825034 -0.0032029271
0.044768125 0.039119884 -0.0023429689
0.044454984 0.037123792 -0.0017140198
0.010359552 -0.060712364 -0.0020742165
0.0096519217 -0.062442429 -0.0020863614
0.046906285 0.040105022 -0.0027520845
0.047201056 0.037836917 -0.0021603995
0.047018964 0.035608418 -0.0017187443
0.01337564 -0.061298147 -0.0027328541
0.012602963 -0.063180156 -0.0027520647
0.04916646 0.036321405 -0.0019040792
0.049417719 0.034164689 -0.0019914662
0.049263645 0.031817291 -0.0017038236
0.015208473 -0.061993223 -0.0027373901
0.014575854 -0.063170597 -0.002764489
0.052272536 0.032461409 -0.0031506589
0.05148223 0.03042895 -0.002408962
0.051158912 0.0281715 -0.0017736404
0.053829499 0.031669732 -0.0037313437
0.053944312 0.029368758 -0.0034325495
0.05319231 0.026737887 -0.0021500594
0.053082731 0.024179505 -0.0016696171
0.026519552 -0.053465597 -0.0015462844
0.025804888 -0.055396583 -0.0022271296
0.054753296 0.025487656 -0.0024500485
0.054787204 0.022872642 -0.0017354881
0.054565586 0.02014615 -0.001648413
0.054597341 0.017925873 -0.0016315517
0.031408705 -0.049270824 -0.00097545818
0.02974714 -0.05121775 -0.0010193973
0.02847743 -0.053534143 -0.0017596884
0.026944987 -0.055414848 -0.0023508845
0.057927623 0.020596456 -0.0032977872
0.056923222 0.019103836 -0.0024379552
0.056371756 0.016346034 -0.0017558396
0.056487564 0.013920939 -0.0016129352
0.034636699 -0.047209464 -0.001011341
0.033546209 -0.049036134 -0.0012942958
0.032504372 -0.051840007 -0.0018567477
0.031527903 -0.054219611 -0.0028101797
0.059311483 0.020178951 -0.0036782827
0.059312683 0.017899467 -0.0034903169
0.058781561 0.015145851 -0.0027488279
0.058047738 0.012322692 -0.0019473338
0.057772785 0.0094548147 -0.0015870245
0.057476681 0.0072137695 -0.0015681314
0.039096173 -0.04569342 -0.0010507875
0.037482664 -0.047517374 -0.0016380782
0.036128361 -0.049912348 -0.0027057093
0.035028376 -0.052534401 -0.0028974374
0.033532731 -0.054562375 -0.002948639
0.060792495 0.016206797 -0.0036573685
0.06069589 0.014024144 -0.0036400938
0.060447868 0.011298768 -0.0032718272
0.05974137 0.0085742213 -0.002518031
0.058938112 0.0058066193 -0.0019310822
0.05831974 0.0029569678 -0.0016067612
0.057747006 0.000214478 -0.0015166063
0.044784285 -0.038307615 -0.0011425558
0.044003431 -0.040254064 -0.0011228677
0.042521492 -0.043043096 -0.0010923988
0.041236494 -0.045437314 -0.0014963076
0.040072296 -0.04794855 -0.0024790361
0.03850358 -0.050418898 -0.0030112346
0.037199024 -0.052289173 -0.0029888616
0.061968807 0.0097403303 -0.0036155521
0.061703339 0.0076447297 -0.003575708
0.061336908 0.0048414767 -0.0032136631
0.060543813 0.001952678 -0.0025714347
0.059648644 -0.00093323179 -0.0019000521
0.059079107 -0.003741473 -0.0016089719
0.058485646 -0.0067415116 -0.0014683425
0.057869613 -0.0092800176 -0.0014451847
0.052688569 -0.024822533 -0.0012945733
0.05181431 -0.026934907 -0.001273039
0.050841335 -0.029697891 -0.0012459396
0.049558759 -0.032498013 -0.0012166196
0.04818657 -0.035132863 -0.0014408653
0.046907909 -0.037804186 -0.0016051113
0.045856148 -0.04070475 -0.001856479
0.044727538 -0.043468989 -0.0021109655
0.043511279 -0.045928493 -0.0025702431
0.042208966 -0.048227098 -0.0030510831
0.062662728 0.0030392967 -0.0035689613
0.062354945 0.00093153119 -0.0035509786
0.061957624 -0.0018541217 -0.0032742326
0.061308719 -0.0047915541 -0.0028877018
0.06046503 -0.0076026525 -0.0024984386
0.059489932 -0.010310678 -0.0020496033
0.058669776 -0.013168709 -0.0018582364
0.05764107 -0.016144576 -0.0018040597
0.056617174 -0.018993791 -0.0017636772
0.05567367 -0.021807684 -0.0017618426
0.054551311 -0.024552878 -0.001672011
0.053625632 -0.027513204 -0.001912135
0.052671041 -0.030306878 -0.002010898
0.051693518 -0.033084083 -0.002148313
0.050699774 -0.035883963 -0.0025595296
0.049578872 -0.038766697 -0.0028390181
0.048232112 -0.041283105 -0.0030547562
0.046819493 -0.043316476 -0.0031173001
0.062794775 -0.0061334064 -0.0035000306
0.062364843 -0.0084676864 -0.0034795462
0.061533093 -0.011299971 -0.0033122941
0.06078355 -0.014126198 -0.0031268117
0.059911095 -0.016931536 -0.0028544965
0.058983248 -0.019740935 -0.0029201652
0.058026087 -0.022543099 -0.0029555445
0.056922872 -0.02530057 -0.0030516703
0.055823497 -0.028085671 -0.0031850885
0.054754879 -0.030987779 -0.0032607203
0.053674292 -0.033696368 -0.0032333012
0.052489407 -0.036288641 -0.0032062775
0.051604189 -0.03824608 -0.0031858224
-0.04919409 0.028974548 -6.5694272e-05
-0.050074175 0.027214143 -4.6844092e-05
-0.051266283 0.024558345 -1.9187843e-05
-0.052292645 0.0218958 7.4820309e-06
-0.053317029 0.01905893 3.5464953e-05
-0.054380834 0.016285628 6.3211366e-05
-0.055187002 0.01335746 9.0522226e-05
-0.05607225 0.010488573 0.00011787746
-0.056903709 0.0077827824 0.00014365591
-0.057563908 0.005229475 0.00016721766
-0.043752335 0.03710616 -0.00016162047
-0.045034196 0.035033323 -0.00010753916
-0.046069421 0.032483298 -2.3358254e-05
-0.047172964 0.029650949 -3.8069942e-05
-0.048192877 0.02680837 0.00028450883
-0.049240272 0.023979157 0.0005257937
-0.050138552 0.021180963 0.00065576943
-0.051226214 0.018358292 0.00095556775
-0.052180797 0.015527573 0.0011395367
-0.053134691 0.012694178 0.00084520096
-0.054107442 0.0098476214 0.00077017088
-0.055420499 0.0071733948 0.00041681904
-0.056346543 0.0041397586 0.00016786656
-0.056785721 0.0013357718 0.00019193563
-0.057088699 -0.0015477538 0.00021577162
-0.057493296 -0.0035268515 0.0002333821
-0.0377733 0.044097371 -0.00025218003
-0.038884897 0.042453211 -0.00023276429
-0.040221833 0.039899014 -0.0001408659
-0.041469313 0.037195772 0.00015673009
-0.042517655 0.034326233 0.00066659128
-0.043439597 0.031474456 0.00095542526
-0.044465471 0.02876243 0.0012177094
-0.045433555 0.025868228 0.0015258865
-0.046482563 0.023222866 0.0016478054
-0.047578692 0.020194229 0.0017725907
-0.04838426 0.017361689 0.0020064709
-0.049414672 0.014647886 0.0020446875
-0.05059956 0.011656631 0.0020747746
-0.051627189 0.0098393522 0.0018451061
-0.055474609 0.00029268675 0.00019165792
-0.056109585 -0.0022652447 0.00021508201
-0.056543775 -0.0052086301 0.00024017971
-0.056605171 -0.0081516244 0.00026294054
-0.05680503 -0.010338916 0.00028086701
-0.035623677 0.044094965 -0.00026566471
-0.036748782 0.041954488 4.6556757e-05
-0.037691303 0.039221592 0.00065941713
-0.038641699 0.0362323 0.00087985309
-0.039683215 0.033425562 0.0013590178
-0.040849812 0.030943032 0.0018514323
-0.042577684 0.028396599 0.0018973921
-0.043667354 0.025773104 0.0019241318
-0.056051292 -0.0097301435 0.00027151941
-0.056291804 -0.011151584 0.00028380301
-0.030070428 0.048400164 -0.00033315099
-0.03149059 0.046267774 -0.0001868197
-0.032885898 0.043727178 0.00019001143
-0.033893429 0.040983394 0.00091403787
-0.034958526 0.038297459 0.0014870139
-0.036402069 0.03566527 0.0017533327
-0.037860893 0.033385865 0.0018299266
-0.02674593 0.050643317 -0.00037103504
-0.028000887 0.048367128 -8.4477622e-05
-0.028978664 0.045665905 0.00059090578
-0.030030854 0.042791694 0.0012748955
-0.031489033 0.040444251 0.0017162348
-0.032806519 0.038713694 0.0017577437
-0.049684837 -0.0145343 0.0022682142
-0.04971087 -0.016736571 0.002285107
-0.050324176 -0.020251617 0.0018157293
-0.052283682 -0.023209244 0.00037980318
-0.052785471 -0.024333308 0.00036210479
-0.023173895 0.052439913 -0.00040705875
-0.024410479 0.050256073 -0.0001226895
-0.025245372 0.047436472 0.00071390811
-0.026329298 0.044798128 0.0014979935
-0.027740493 0.042722523 0.0016955168
-0.048879713 -0.018049385 0.0022899893
-0.048865415 -0.02058769 0.0022102655
-0.049688227 -0.02335564 0.0013012949
-0.049561601 -0.025874376 0.0013536887
-0.019071501 0.053823862 -0.00044325046
-0.02047864 0.052145407 -0.00016912181
-0.021500837 0.049318418 0.00069628796
-0.022582345 0.046580046 0.0014141349
-0.024159931 0.044784956 0.001657478
-0.046902172 -0.02172152 0.0023054243
-0.047103923 -0.024458978 0.0021974822
-0.047697563 -0.026778892 0.001800527
-0.015153775 0.05565352 -0.00048168981
-0.01649655 0.053940218 -0.00031892679
-0.017563326 0.051209874 0.00040732056
-0.018591905 0.048416652 0.0014403833
-0.019997424 0.046540998 0.0016180212
-0.044935323 -0.025914334 0.0023249893
-0.045046866 -0.028274212 0.0021716033
-0.045304317 -0.031220641 0.0011903216
-0.046201874 -0.033852488 0.00039321871
-0.01281401 0.055439904 -0.00022603336
-0.013820201 0.05303482 0.0006095132
-0.014842787 0.050335787 0.0012918217
-0.016224246 0.048352897 0.0015806218
-0.042897187 -0.029699691 0.002341025
-0.043222018 -0.031980298 0.0017905361
-0.044179402 -0.034840863 0.00072485395
-0.044379503 -0.037072986 0.00040629564
-0.0088890418 0.056612756 -0.00052821997
-0.010086292 0.054812014 0.00019000287
-0.0110889 0.052069567 0.0011868865
-0.012596268 0.050348897 0.0015427764
-0.041191027 -0.030896563 0.002339503
-0.040636428 -0.033090599 0.0022357181
-0.04143947 -0.035874777 0.0014152045
-0.042136729 -0.038564887 0.00057805382
-0.041975044 -0.041041777 0.00042146235
-0.0043467525 0.057807568 -0.0005656979
-0.0061092637 0.056363057 -0.00054372492
-0.0071793795 0.053876914 0.00035822755
-0.0081296097 0.051754303 0.0014835765
-0.038613301 -0.034659665 0.0023520063
-0.038617428 -0.036892414 0.0021750007
-0.039454766 -0.039730549 0.0012247355
-0.04019203 -0.041895278 0.00045596581
-0.0022380091 0.057723064 -0.00057830248
-0.0033338312 0.055741407 -0.00031430851
-0.0043615494 0.053006772 0.00081673026
-0.0053150626 0.051241916 0.0014904008
-0.035984874 -0.03824383 0.0023626825
-0.036668397 -0.040506907 0.0017882424
-0.037241429 -0.042811617 0.00071776053
0.00040096045 0.057264585 -0.00054785481
-0.00052367337 0.054838452 0.00035609843
-0.0014972743 0.052633882 0.0013773523
-0.033483662 -0.039487787 0.0023565406
-0.033849679 -0.041506123 0.0019743161
-0.034749113 -0.044281855 0.00085633388
-0.034925841 -0.046290059 0.00041720335
0.0043767709 0.058052137 -0.00062217331
0.0032994011 0.056660913 -0.0002272813
0.0024173874 0.053911977 0.0010516302
0.0016764328 0.05195884 0.0014410734
-0.031068124 -0.042716898 0.0023209956
-0.031938899 -0.04534132 0.0014003108
-0.032496519 -0.047725786 0.00059326773
0.0069374405 0.057207771 -0.00063178514
0.0061152056 0.055674396 -1.7100159e-05
0.0051850937 0.052926153 0.001307081
0.0041248631 0.051354721 0.0014304421
-0.028244227 -0.043933105 0.0023574475
-0.029144309 -0.046300504 0.0018188048
-0.030746436 -0.048232242 0.0011678268
0.0097329747 0.056602769 -0.00064473198
0.0088977236 0.054728203 -0.00015148916
0.0081064515 0.052391503 0.0012768218
-0.025745334 -0.045008101 0.0023499909
-0.026282087 -0.047228768 0.0017645339
-0.026217883 -0.050216075 0.00052297174
-0.026701901 -0.052148152 0.00041028578
0.012649046 0.056146406 -0.00065951893
0.011785908 0.053765066 0.00033516157
0.010845743 0.051287297 0.0013569868
-0.022795238 -0.046650786 0.002344145
-0.023508232 -0.048387617 0.001738111
-0.024500843 -0.051057063 0.00063367339
-0.025358682 -0.052687671 0.00040594846
0.015231859 0.055066671 -0.00066747982
0.01458942 0.052717604 0.00056330336
0.013895088 0.05052226 0.0013754831
-0.020189933 -0.047412302 0.0023335642
-0.020687183 -0.049390946 0.0021442277
-0.021567533 -0.052237246 0.0012710087
-0.022187527 -0.054020993 0.00039621734
0.018382624 0.054017119 -0.00059348054
0.017489098 0.051634483 0.00073231146
0.016583182 0.049143594 0.0013690914
-0.017406879 -0.048543502 0.0023248005
-0.017818792 -0.050435182 0.0022225175
-0.018770305 -0.053276904 0.0010682575
-0.019340917 -0.055039555 0.0003861399
0.020828253 0.052952334 -0.00068644155
0.02030153 0.050777458 0.00058118667
0.019559834 0.04855914 0.0013549437
-0.014312895 -0.049581498 0.0023133222
-0.015005538 -0.051363423 0.0019622066
-0.015976191 -0.054105688 0.00094293221
-0.016689483 -0.056084041 0.0003774814
0.023887031 0.051801424 -0.00069684116
0.02313086 0.049835425 2.501125e-06
0.022289407 0.047152322 0.0010674121
0.022403337 0.045008827 0.0013642545
-0.011514388 -0.050515611 0.0023028888
-0.012138489 -0.052331235 0.0019963658
-0.013117434 -0.055163722 0.0010087058
-0.013751776 -0.056961689 0.0003657621
0.026539335 0.050916232 -0.00070670136
0.026047207 0.048913952 -4.6244357e-05
0.025065335 0.046092648 0.00099520374
0.023659213 0.044720117 0.0013585719
-0.0084802471 -0.051363375 0.002290264
-0.0092574647 -0.053171337 0.001728016
-0.010295033 -0.056210712 0.0010472036
-0.011025339 -0.05826902 0.00035863256
0.029355735 0.04967875 -0.00071494014
0.028836925 0.047868129 -0.00028202869
0.027928464 0.045121636 0.0008234228
0.027862363 0.04322964 0.0013435895
-0.0055892747 -0.052093253 0.0022776839
-0.0064702639 -0.054192431 0.0016387983
-0.007400848 -0.057053182 0.00080500182
-0.008184582 -0.0589379 0.00034593296
0.031313691 0.048741177 -0.00072002504
0.031632006 0.046828609 -0.00029445556
0.030729681 0.044085149 0.00070520549
0.030198751 0.041715011 0.0013403589
-0.0026519205 -0.052566465 0.0022628622
-0.0035509178 -0.055156264 0.0014420822
-0.004670619 -0.05763077 0.00035454243
-0.0063172039 -0.059194282 0.00033623577
0.034321707 0.045641016 -0.00056896452
0.033495396 0.043062206 0.00044933966
0.032638159 0.040368091 0.0013354019
0.001836054 -0.051795106 0.0022290333
0.00027309544 -0.053427 0.0020878271
-0.00081695244 -0.056155685 0.00092961104
-0.0016677771 -0.058265895 0.00030002336
0.036699511 0.044323456 -0.0007201999
0.036304861 0.042111494 6.8383873e-05
0.035480432 0.039299436 0.0011627058
0.035502937 0.037098195 0.0013423876
0.0040280633 -0.052017197 0.0022168937
0.00305802 -0.054248627 0.0016929
0.001947185 -0.05692995 0.00075243867
0.00078085996 -0.058919117 0.00028965963
0.038606718 0.042960368 -0.00072173186
0.03890904 0.040804368 -0.00049793499
0.038216434 0.038232017 0.00047868167
0.037588034 0.036106721 0.0013367527
0.0082473559 -0.051184092 0.0021842478
0.0068485364 -0.052441075 0.0022024286
0.0051541049 -0.054486766 0.0017715056
0.0039196033 -0.056783509 0.0012538664
0.040828876 0.039228704 -0.00070728629
0.040842734 0.037152786 -0.00015400379
0.040378287 0.034915332 0.0007829332
0.010209224 -0.05155218 0.002174749
0.0092210965 -0.052690398 0.0021895447
0.043564066 0.035903621 -0.00039532449
0.042926744 0.03353091 0.00021881747
0.042788289 0.030932602 0.00082928641
0.014905388 -0.050047241 0.0021339348
0.014236574 -0.050596513 0.0021422983
0.04612691 0.034646519 -0.00070564623
0.045738064 0.032501653 -0.00041330513
0.044799358 0.029686578 0.00070151524
0.044311702 0.027025588 0.0013482952
0.044558205 0.024748212 0.0013795653
0.016908243 -0.050086308 0.0021215731
0.016308967 -0.051375575 0.002135247
0.048203472 0.031208795 -0.00069250911
0.047664925 0.028641593 -0.0001929815
0.046560165 0.025806647 0.00081347092
0.045972925 0.023172559 0.0013825691
0.049811669 0.029633537 -0.00069055578
0.050060261 0.027365677 -0.00064505037
0.049334161 0.024832865 4.0560757e-05
0.048339337 0.021953464 0.00093273801
0.048176885 0.019307243 0.0013981895
0.051687337 0.025942609 -0.00067423575
0.051853187 0.02360221 -0.00058434095
0.051245265 0.020984218 3.5259e-06
0.050379392 0.018248502 0.00084198941
0.050070148 0.015640743 0.0014142136
0.049826499 0.012573021 0.0014391681
0.053480029 0.022090204 -0.0006561685
0.053300776 0.019993514 -0.00063914922
0.053158134 0.017198628 -0.0001735407
0.052264728 0.014346948 0.00075862178
0.051390629 0.011528198 0.0011617837
0.050949212 0.0092579713 0.0014572549
0.031279087 -0.048790772 2.1709071e-05
0.030059222 -0.049897015 3.7787162e-05
0.055144485 0.015823163 -0.00061898388
0.054886032 0.013338071 -0.0003613373
0.05407225 0.010554894 0.00012023104
0.053006925 0.0078854542 0.00076115492
0.052521575 0.0048181806 0.0011350268
0.051882844 0.002369443 0.0012064924
0.036129445 -0.044853043 -3.8552767e-05
0.034525454 -0.046201218 -1.8304738e-05
0.032657102 -0.047825489 5.7721336e-06
0.056558196 0.012121681 -0.00059969141
0.056383625 0.0096432921 -0.00057975459
0.055756085 0.0068460461 -0.0003582699
0.054889955 0.003908027 0.00012776892
0.054276638 0.0013754293 0.00038384087
0.045331575 -0.028168023 0.0017770751
0.044279378 -0.030381316 0.0016004629
0.041016351 -0.039957218 -0.00010637287
0.039723832 -0.042020574 -8.2637125e-05
0.038251579 -0.044372275 -5.5539102e-05
0.036969267 -0.046258956 -3.3165852e-05
0.057387501 0.0055863801 -0.00055517891
0.056994095 0.0030398034 -0.00053336844
0.056419566 -2.7619302e-05 -0.00047235351
0.056149084 -0.0026886901 -0.00048452278
0.05582843 -0.0057269428 -0.00012607433
0.055358987 -0.0081315665 0.00014523117
0.052441515 -0.014883688 0.0011895971
0.05151467 -0.017221231 0.0012715136
0.050417494 -0.019971775 0.0013495301
0.049256716 -0.022764895 0.0012645418
0.048166256 -0.025577055 0.00088253134
0.047080293 -0.028307188 0.00066325342
0.046076655 -0.031066032 0.00049066392
0.045328267 -0.03407567 0.00021736354
0.044289209 -0.036903381 -1.4937395e-05
0.043014608 -0.039588273 -0.00012173333
0.041688435 -0.042197071 -9.3595037e-05
0.040160738 -0.044507869 -6.6445966e-05
0.057844996 -0.0018305015 -0.00050162082
0.05772401 -0.0037062773 -0.00048664596
0.057271756 -0.0064497879 -0.00046295486
0.056507237 -0.009449956 -0.00039369165
0.055769671 -0.012342247 -0.00024546875
0.054705814 -0.01506833 6.9820926e-06
0.05380239 -0.017934699 0.00012794133
0.052838825 -0.020809155 0.00012688979
0.051701207 -0.023629488 -4.9638707e-05
0.050663199 -0.026334431 -0.00022440472
0.049700126 -0.029169384 -0.00024280742
0.048511218 -0.031908222 -0.00021453982
0.047003608 -0.034455847 -0.00018573074
0.045764543 -0.037040509 -0.00015829157
0.057838362 -0.011281963 -0.00042971721
0.057444055 -0.013169535 -0.0004129415
0.056579817 -0.0155971 -0.0003890584
0.055518143 -0.018466752 -0.00036059273
0.054511681 -0.021378778 -0.00033215061
0.053560909 -0.023658071 -0.00030883815
-0.045358326 0.02214591 0.0029623329
-0.046175692 0.019780995 0.0029854313
-0.046686549 0.018302923 0.0029998827
-0.048372369 0.013425282 0.0030475233
-0.049121793 0.011616008 0.0030659565
-0.049700592 0.0095822923 0.0030850582
-0.038672857 0.031914003 0.0028462221
-0.039934747 0.029868206 0.0028697667
-0.041339904 0.027633931 0.0028956113
-0.042468831 0.024915485 0.0029233485
-0.043598443 0.022060439 0.0029929446
-0.04453814 0.019227466 0.0031968954
-0.04554864 0.016415579 0.0031688684
-0.046484485 0.013602922 0.0031443734
-0.047471993 0.010785223 0.0031420866
-0.047953323 0.0080627669 0.0030858063
-0.048280068 0.0047395388 0.0031129855
-0.049022548 0.0022880659 0.0031362581
-0.034001082 0.03697294 0.0027784938
-0.035303548 0.034720547 0.0028038782
-0.03670419 0.032274574 0.0029082426
-0.037692588 0.029571496 0.0032479079
-0.038687576 0.026750825 0.0035189162
-0.039679132 0.023926059 0.003723189
-0.040674068 0.021096272 0.0039408728
-0.041649509 0.018273963 0.0039684237
-0.042624962 0.015451652 0.0039960044
-0.043600414 0.012629339 0.0040235552
-0.044575877 0.0098070307 0.0040511363
-0.045583751 0.0069614584 0.0039723101
-0.046505608 0.0040181288 0.0037052692
-0.047553048 0.0012004571 0.0036616768
-0.047976885 -0.0015013069 0.0035295649
-0.048271481 -0.0039533712 0.0031790114
-0.029224623 0.041058052 0.0027175443
-0.030463565 0.039484173 0.002737357
-0.031993676 0.037152167 0.0027857686
-0.033082053 0.03427735 0.0031833069
-0.034015693 0.03147433 0.0037040743
-0.034925312 0.028587626 0.0038479224
-0.035908844 0.025761325 0.0039866925
-0.036893062 0.022957176 0.0040154271
-0.037841983 0.020125253 0.0040647462
-0.038857844 0.017377188 0.0043150373
-0.039808035 0.014500939 0.0047328668
-0.040841322 0.011693552 0.0046563977
-0.041736159 0.0088682156 0.0045118425
-0.042743094 0.0059916675 0.0042020427
-0.043755736 0.0030382797 0.0040974664
-0.044731185 0.00021597184 0.0041250619
-0.045760226 -0.0025921483 0.0039826613
-0.046760321 -0.0053537888 0.0032703246
-0.047537006 -0.0083097424 0.0032076847
-0.048161499 -0.011277891 0.0032341471
-0.048797771 -0.013805839 0.0032573366
-0.048943624 -0.015995568 0.0032747944
-0.025363095 0.043400299 0.0026755445
-0.026914012 0.041493654 0.0026999151
-0.028125245 0.039030187 0.0031482799
-0.029119784 0.036224917 0.0036435311
-0.030168694 0.033292215 0.0038232033
-0.031113204 0.03045211 0.0042555803
-0.032100506 0.02773975 0.0046701161
-0.033091411 0.024900284 0.0048645572
-0.034071684 0.022064012 0.0048923339
-0.035051968 0.019227713 0.004919962
-0.036032252 0.016391449 0.0049477387
-0.037012532 0.013555167 0.0049753664
-0.037992813 0.01071889 0.0050031431
-0.038973108 0.0078825727 0.0050307713
-0.039953385 0.0050462931 0.0050585484
-0.040964697 0.0021937992 0.0048556486
-0.041916255 -0.00069355778 0.0047077765
-0.042871479 -0.0035416344 0.0044817221
-0.04384499 -0.0063959993 0.0041912897
-0.044843402 -0.00923278 0.003962365
-0.045798797 -0.012091052 0.0037467012
-0.046715319 -0.01490597 0.0033012435
-0.04750422 -0.017687894 0.0032787989
-0.047425643 -0.019622743 0.0032928544
-0.021915553 0.045076691 0.0026412143
-0.023288768 0.043510616 0.0026618829
-0.024341218 0.040875863 0.003221709
-0.025327396 0.038074255 0.0037157326
-0.026311589 0.035254829 0.0040544681
-0.02730884 0.032428138 0.004635436
-0.028294485 0.029592445 0.0047989232
-0.029274769 0.026756164 0.0048267301
-0.030255053 0.023919884 0.004854328
-0.031574 0.021513999 0.0048809978
-0.032395594 0.018103346 0.0049120737
-0.033195898 0.015411045 0.0049375393
-0.034556989 0.013319126 0.0049619814
-0.036201432 0.010099674 0.0049967552
-0.036812156 0.006753149 0.0050260234
-0.03711703 0.0040658936 0.005048349
-0.038097303 0.0012296494 0.0050759465
-0.03907758 -0.0016066395 0.0051037534
-0.040057883 -0.0044429619 0.0051313518
-0.041082542 -0.0073167961 0.0049735969
-0.041969102 -0.010167768 0.0043037143
-0.042988233 -0.013024413 0.00421482
-0.043989033 -0.015884373 0.0039439141
-0.044883534 -0.01868983 0.003294091
-0.045546688 -0.021373063 0.0032945478
-0.045533247 -0.023682702 0.0033118753
-0.017753102 0.04680014 0.0026020801
-0.019448705 0.045157246 0.0027305584
-0.020552229 0.042726524 0.0033394168
-0.021529965 0.039923914 0.0037778565
-0.022512607 0.037113041 0.004405464
-0.023497563 0.034284603 0.004733141
-0.024477845 0.031448323 0.0047609177
-0.025458127 0.028612038 0.0047885454
-0.026438411 0.025775753 0.0048163226
-0.027727786 0.023447383 0.0048422171
-0.031083951 0.016686369 0.0049145906
-0.031548295 0.015342866 0.0049277279
-0.033167604 0.0043718745 0.0050212666
-0.034524817 0.0031479774 0.005039114
-0.035799298 0.00035045948 0.0050683632
-0.036260962 -0.0025952505 0.0050935466
-0.037221521 -0.0054233633 0.005120974
-0.038201809 -0.0082596643 0.0051487507
-0.039228294 -0.011126277 0.0050149597
-0.040142026 -0.013997846 0.0045555057
-0.041124366 -0.016815465 0.0042517502
-0.042134337 -0.019645456 0.0038313568
-0.043049082 -0.022473855 0.003316697
-0.043745562 -0.025167361 0.0033121202
-0.043496564 -0.027365066 0.0033271222
-0.014237447 0.048673611 0.0025657951
-0.015629597 0.047065042 0.0027158812
-0.016758367 0.044579878 0.003457119
-0.017731721 0.04176772 0.0036400955
-0.018702403 0.038966175 0.0043786513
-0.019680927 0.036140479 0.0046953135
-0.020856265 0.033543438 0.0047224332
-0.022356573 0.030751217 0.0047530564
-0.023327162 0.027817158 0.0047814418
-0.024373695 0.025786225 0.0048034354
-0.034570925 -0.003832872 0.0050924798
-0.034851085 -0.0065061413 0.0051145595
-0.035365455 -0.0092400722 0.0051385514
-0.036345724 -0.012076307 0.0051661492
-0.037326004 -0.014912589 0.0051939557
-0.038347408 -0.017771494 0.0050114049
-0.039247878 -0.02059897 0.0043902048
-0.040293943 -0.023479708 0.0039509758
-0.041224129 -0.026262973 0.0033290442
-0.04190712 -0.028849624 0.0033286077
-0.010326722 0.050493259 0.0025274907
-0.01192063 0.048936494 0.0025494404
-0.012973798 0.04640542 0.0031418183
-0.013925672 0.043626793 0.0038520813
-0.014887255 0.040825583 0.0044739847
-0.015900165 0.038080875 0.0046567563
-0.017495476 0.035774987 0.004684425
-0.018704046 0.034131695 0.0047044414
-0.033207409 -0.0083148694 0.0051179761
-0.032905832 -0.010343447 0.0051315567
-0.033509366 -0.013056713 0.0051557715
-0.03448965 -0.015893003 0.0051835482
-0.035469942 -0.018729307 0.0052111764
-0.036443699 -0.021523371 0.0045284568
-0.037447445 -0.024418097 0.0042667151
-0.038467042 -0.027242821 0.0041350811
-0.039351273 -0.030008022 0.003453474
-0.03948259 -0.032188695 0.003338682
-0.008021527 0.050355006 0.0025142287
-0.0091225626 0.048242792 0.0028243558
-0.010134045 0.045463089 0.0036014924
-0.011071607 0.042682834 0.0044915439
-0.012047648 0.039852228 0.0046193027
-0.013067456 0.037761185 0.0046416009
-0.031731505 -0.01411448 0.0051528765
-0.031854086 -0.01696384 0.0051753088
-0.032633577 -0.019709706 0.0052009476
-0.033663776 -0.02256844 0.0050997548
-0.034595542 -0.025402419 0.0046181027
-0.035582297 -0.02821376 0.004320526
-0.036560152 -0.031101849 0.0038905235
-0.037295874 -0.033924527 0.0033383383
-0.037055749 -0.036178488 0.0033538088
-0.0034920145 0.051357366 0.0024781302
-0.0052350918 0.049820479 0.0025008626
-0.006320809 0.047223438 0.0031626583
-0.0072857849 0.044510022 0.0039983541
-0.0082310168 0.041708101 0.0045811175
-0.0092427228 0.039004959 0.0046081687
-0.010921487 0.037791841 0.0046278876
-0.029364746 -0.018420866 0.0051708017
-0.029797234 -0.020690121 0.0051905694
-0.030777514 -0.023526406 0.0052183461
-0.031741351 -0.026410544 0.0051033264
-0.032797091 -0.029131243 0.0043787323
-0.033734445 -0.03204146 0.0039931117
-0.034661684 -0.034996774 0.003329999
-0.035284813 -0.037278444 0.0033512039
-0.0014358833 0.051278424 0.0024659617
-0.0024623917 0.049252093 0.0027403822
-0.0035174889 0.046330471 0.0034941784
-0.0044331318 0.043549396 0.0042965356
-0.0053946516 0.04072769 0.0045708888
-0.0064260261 0.038463742 0.0045946785
-0.027531166 -0.022235604 0.0051883119
-0.027941154 -0.024506815 0.0052081472
-0.028968222 -0.027399223 0.0049914927
-0.029935488 -0.030157758 0.0042755743
-0.030949775 -0.032999244 0.004280312
-0.031934932 -0.03597784 0.0037361046
-0.032637499 -0.038598843 0.0033447137
0.0012474665 0.050587822 0.0024544278
0.00035565905 0.048236437 0.0031408891
-0.00065487716 0.045380224 0.0039056817
-0.0015780125 0.042583566 0.0045328829
-0.0031083077 0.040220208 0.0045605525
-0.0044042431 0.038435712 0.004582189
-0.024035774 -0.023466328 0.0051758001
-0.025104797 -0.025487226 0.0051977392
-0.026085071 -0.028323494 0.0052253669
-0.027088609 -0.031055983 0.0044523734
-0.028108811 -0.033965025 0.0042808363
-0.029127873 -0.036988527 0.0040953197
-0.030015506 -0.039746668 0.0033370103
-0.030369744 -0.041546721 0.0033527804
0.005852757 0.051105652 0.0024215386
0.0041805496 0.049768887 0.0027411035
0.0032136533 0.047245808 0.0035572131
0.0022350689 0.044437233 0.0044615809
0.0012583379 0.041603155 0.004522684
0.0010916675 0.039622009 0.0045387908
-0.021390643 -0.023998968 0.0051632896
-0.022268446 -0.026467638 0.0051875403
-0.023248732 -0.029303905 0.0052151382
-0.024274031 -0.032117464 0.005040552
-0.025156457 -0.034993086 0.0044956789
-0.026224449 -0.038004678 0.0042330967
-0.027144093 -0.040687148 0.0034209003
-0.027833156 -0.042639289 0.0033453107
0.0077860262 0.051007334 0.0024102717
0.0070042033 0.048969235 0.0030861222
0.0060801171 0.046197325 0.0039931624
0.0050749863 0.043459035 0.0044844989
0.0039493144 0.041028783 0.0045102183
0.0022720946 0.039314248 0.0045337253
-0.020037942 -0.025010448 0.0051624812
-0.020528985 -0.027068874 0.0051812362
-0.02107029 -0.030495564 0.005210679
-0.021392643 -0.033120606 0.0052325372
-0.022326931 -0.035954561 0.0048656156
-0.023342296 -0.038938377 0.0042888229
-0.024355534 -0.041690394 0.0037273322
-0.024972495 -0.043934621 0.0033372496
0.010439195 0.04991141 0.0024019787
0.0098176505 0.047993429 0.0030503408
0.0089176614 0.045300014 0.0040582647
0.0079113096 0.042478636 0.0044742706
0.0069286404 0.040354472 0.0044966927
-0.017516788 -0.031641841 0.0051971474
-0.018556293 -0.034101013 0.0052223383
-0.019504894 -0.03696676 0.0046932423
-0.020519916 -0.039913949 0.004278555
-0.021542141 -0.042677421 0.0037561317
-0.022523113 -0.045357931 0.0033327811
0.013382408 0.049233515 0.0023887507
0.012701968 0.047031615 0.0029840861
0.011712145 0.044252574 0.0040183929
0.010747695 0.041498218 0.0044638924
0.010042312 0.039132051 0.0044864928
-0.014810967 -0.03240259 0.0051858863
-0.015719933 -0.035081424 0.0052119307
-0.016654141 -0.037925042 0.0051168622
-0.017635031 -0.040844455 0.0043517938
-0.018737899 -0.043730687 0.0040578539
-0.019450273 -0.046237998 0.0033437642
0.016113574 0.04780712 0.0023823776
0.015469503 0.045937065 0.0029382589
0.014573788 0.043259241 0.0036153796
0.013584054 0.040517811 0.0044536637
0.01273632 0.038379353 0.0044753347
-0.01008992 -0.031847008 0.005152165
-0.01188962 -0.03341851 0.0051754252
-0.012883574 -0.036061831 0.0052017313
-0.013868938 -0.038992979 0.0050381012
-0.014886941 -0.04183206 0.0042774687
-0.015853431 -0.044727705 0.0042537069
-0.016718131 -0.047278088 0.0033879457
0.019083194 0.047226753 0.0023683177
0.018325124 0.045072325 0.0028314642
0.017399147 0.042282071 0.0036014395
0.016420398 0.039537396 0.004443286
0.015791707 0.037254997 0.0044647693
-0.0090654846 -0.032129478 0.0051479433
-0.0090669524 -0.03420594 0.0051635467
-0.010047228 -0.037042238 0.0051913238
-0.011053596 -0.039943982 0.005034382
-0.012052741 -0.042840701 0.0042478121
-0.013005474 -0.045716561 0.0042399676
-0.013964009 -0.048216861 0.0033716261
0.021017238 0.046104606 0.0023646068
0.02100946 0.043996673 0.0027252142
0.020168416 0.041376024 0.0035940756
0.019256737 0.038556993 0.0044330568
0.018319393 0.036116324 0.0044576018
-0.0064144148 -0.035459362 0.0051566637
-0.007210881 -0.038022641 0.0051811244
-0.0082459189 -0.040892176 0.0047933022
-0.0092303697 -0.043816268 0.0042375443
-0.010247033 -0.046709765 0.0040942696
-0.011128334 -0.049253467 0.0032910453
0.024920389 0.044514779 0.0023522731
0.023938883 0.042948522 0.0028831302
0.023021348 0.040328376 0.0038430104
0.022093108 0.03757659 0.0044226786
0.021533148 0.035714664 0.0044405204
-0.0014831666 -0.034989111 0.0051221703
-0.0033620195 -0.036450956 0.0051450627
-0.0043745227 -0.039003059 0.0051707169
-0.00538419 -0.041913364 0.0050415932
-0.0064080032 -0.044791847 0.0042273067
-0.0074208938 -0.047738124 0.0041039311
-0.0082915472 -0.050036348 0.003279252
0.026546312 0.043952763 0.0023463666
0.026750367 0.042027093 0.0025435004
0.025857452 0.039372254 0.003363651
0.024921264 0.036601938 0.0042805462
0.024155652 0.033838682 0.0044383798
0.024123248 0.031422827 0.0044569513
0.00059874356 -0.034928881 0.0051087076
-0.00055785105 -0.037147168 0.0051327106
-0.0015381426 -0.039983459 0.0051605175
-0.0025096526 -0.042868376 0.0047303168
-0.0035856245 -0.045767426 0.0042170393
-0.0045006806 -0.048597693 0.0037727326
-0.0053206496 -0.050812617 0.0032665394
0.029171126 0.040832564 0.0024204322
0.02872014 0.038462732 0.0033744304
0.02777236 0.035597272 0.0043920684
0.026785523 0.032779485 0.0044298489
0.025946382 0.030400597 0.0044533089
0.0048902929 -0.033794202 0.0050732265
0.0032927813 -0.035361368 0.0050950698
0.0022784611 -0.038127583 0.0051223328
0.0012981826 -0.040963866 0.00515011
0.00030111894 -0.0436389 0.0043530199
-0.0007704664 -0.046756562 0.0041959672
-0.0016193343 -0.04943715 0.0033329148
-0.0024726726 -0.051278062 0.0032521584
0.033190683 0.038760439 0.0023442465
0.031699516 0.037156112 0.0029199964
0.030632202 0.034597162 0.003957436
0.029621866 0.031799082 0.00441965
0.028954033 0.029520098 0.0044411737
0.0084357988 -0.031321838 0.0050322311
0.0068751648 -0.033472568 0.0050583542
0.0060749874 -0.03628147 0.005084706
0.0051147994 -0.039107971 0.0051121041
0.0041355286 -0.042042345 0.0049944627
0.0030753659 -0.044700533 0.0041963579
0.0020749914 -0.047752678 0.0041770982
0.0011674985 -0.050386179 0.0033684911
-4.3077394e-05 -0.051911902 0.0032417069
0.034003649 0.038479432 0.0023412933
0.034239765 0.036358092 0.0023560782
0.033400737 0.033537511 0.0031944527
0.032493934 0.030827336 0.0042386986
0.031604588 0.028090877 0.0044353269
0.031690102 0.0248043 0.0044598994
0.031045642 0.022742467 0.0044795959
0.0087014195 -0.03782101 0.0050799833
0.0079511693 -0.040088393 0.0051017259
0.0069853114 -0.042941108 0.0046341699
0.0060568824 -0.045774661 0.004156725
0.0049580978 -0.048760768 0.0038836512
0.0040009804 -0.050886948 0.0032087141
0.036878482 0.034879643 0.0023507841
0.036251273 0.032586958 0.0030063819
0.035270646 0.029741477 0.0035857495
0.034314338 0.027001971 0.0044266409
0.033334065 0.024165686 0.0044544479
0.032538317 0.021536609 0.0044794343
0.015244787 -0.030935526 0.0049866647
0.014734079 -0.032406244 0.0050010295
0.013135054 -0.036155481 0.005039562
0.011777609 -0.038252633 0.0050639906
0.010787553 -0.041068811 0.0050914972
0.0098932851 -0.043844052 0.0044006715
0.0088792564 -0.046750247 0.004146487
0.0078645088 -0.049604785 0.0034985053
0.0063417172 -0.051210675 0.0031964015
0.037982054 0.031111479 0.0033724117
0.038017184 0.028732497 0.0033901606
0.037183717 0.026037982 0.0043285168
0.036170401 0.023185285 0.0044440399
0.035190132 0.020348994 0.0044716676
0.034971036 0.017544966 0.0044945525
0.034677587 0.015041856 0.004515422
0.019082164 -0.029211495 0.0049495166
0.01763187 -0.030871145 0.0049711261
0.016564762 -0.033540364 0.0049980865
0.015584449 -0.036376651 0.0050257146
0.014604203 -0.03921295 0.0050534913
0.013618569 -0.042134121 0.0047454773
0.012666545 -0.044885099 0.0041195774
0.011706316 -0.047692969 0.0035562871
0.01071093 -0.050337091 0.0031750565
0.04265099 0.028789058 0.0023608329
0.040989764 0.027167737 0.002995909
0.039939083 0.024971355 0.0036438294
0.039058845 0.022186803 0.004141381
0.038026482 0.019368589 0.0044614389
0.037046172 0.016532317 0.0044892454
0.036083836 0.014231504 0.0045127794
0.023690287 -0.024528353 0.0048850439
0.022783251 -0.026153335 0.0049031079
0.021798886 -0.02923652 0.0049327132
0.020381382 -0.031684462 0.0049600806
0.019401088 -0.034520738 0.0049878876
0.018420808 -0.03735707 0.0050154859
0.017492786 -0.040277276 0.0048346492
0.01644557 -0.042954985 0.0041927383
0.015501372 -0.045988001 0.0038466603
0.014513653 -0.048603591 0.0031370847
0.0130397 -0.050521553 0.0031492277
0.042946611 0.028686877 0.0023597591
0.043064326 0.026601771 0.0023749801
0.042787481 0.023952045 0.0029014079
0.041865379 0.021183342 0.0033915464
0.040865339 0.018370006 0.003969301
0.039882556 0.015551901 0.0044788374
0.039284449 0.012874245 0.0045030601
0.03878653 0.0096068839 0.0045310208
0.038158216 0.0070023555 0.0045547569
0.026374806 -0.025257327 0.0048738094
0.025178337 -0.026992356 0.0048942985
0.024198025 -0.029828653 0.0049220752
0.023217784 -0.032664888 0.0049497029
0.022237485 -0.035501175 0.0049774796
0.021296162 -0.038508669 0.0049736197
0.020274658 -0.041085713 0.0042085573
0.019315386 -0.044123843 0.003854014
0.018276144 -0.046776373 0.0031911931
0.017256133 -0.048883393 0.0031104933
0.044925887 0.022555098 0.0023940932
0.044624906 0.020161444 0.002774609
0.043682352 0.017379986 0.0034409936
0.042728152 0.014586912 0.0040933383
0.0417386 0.011735218 0.0044962368
0.04075833 0.0088989325 0.0045240433
0.039778043 0.0060626511 0.0045516412
0.039249994 0.0032990556 0.0045760791
0.039087866 0.00084223039 0.0045957738
0.031543214 -0.020526467 0.0048054811
0.030675156 -0.022450976 0.0048255483
0.029080482 -0.025505994 0.0048587606
0.028014667 -0.027972769 0.0048840698
0.027034368 -0.030809054 0.0049118763
0.026054109 -0.033645291 0.0049394742
0.025097173 -0.036548406 0.0049087503
0.024026662 -0.039282445 0.0042901388
0.023095157 -0.042185634 0.0040228087
0.021876719 -0.04455471 0.0037698443
0.020292301 -0.047110647 0.0030778865
0.046910267 0.018984148 0.0024270304
0.046418201 0.016426619 0.0028652002
0.045496214 0.013568613 0.0034912368
0.044542432 0.010764126 0.0039222687
0.043652762 0.0078698406 0.0041768742
0.042613167 0.0050795553 0.0045312773
0.041634127 0.002245957 0.0045690406
0.04072284 -0.00056195259 0.0045960504
0.040073574 -0.0036008684 0.0046233847
0.039175112 -0.006291396 0.0046494664
0.038726144 -0.009326824 0.0046753567
0.037915662 -0.012191771 0.0047022142
0.036865786 -0.015273557 0.0047322037
0.035403304 -0.017980695 0.004761958
0.033882245 -0.020582844 0.0047912509
0.032811601 -0.023280561 0.0048182867
0.031831332 -0.026116855 0.0048460634
0.030851023 -0.028953165 0.0048736921
0.029965386 -0.031847674 0.0046756896
0.028879406 -0.034655742 0.0044560498
0.027801378 -0.037460782 0.0042319573
0.026954873 -0.040349767 0.0038808938
0.025469618 -0.042653006 0.0040116156
0.024103923 -0.044463262 0.0040339446
0.048938267 0.015087037 0.0024419229
0.04836046 0.012566176 0.002716549
0.047516942 0.0098065585 0.0032124748
0.04634944 0.0068133473 0.0035046367
0.045361172 0.0039679194 0.0039258092
0.044532564 0.0012219977 0.0042433557
0.043515295 -0.0015660888 0.0045427629
0.042509895 -0.0044070063 0.0046142456
0.041529667 -0.007243318 0.004641844
0.040549334 -0.010079565 0.0046696505
0.039569069 -0.012915858 0.0046972483
0.038588781 -0.015752133 0.0047250548
0.037608486 -0.018588439 0.0047526532
0.036628194 -0.021424718 0.0047804601
0.035647936 -0.024260964 0.0048080576
0.034709044 -0.027170939 0.0047663054
0.033640634 -0.029993162 0.004378139
0.032632995 -0.032826986 0.0039041431
0.031688176 -0.035707965 0.0038980017
0.030826004 -0.038588487 0.0035132042
0.029767372 -0.04074008 0.0030318073
0.049724925 0.010955616 0.0024521372
0.049789868 0.008503573 0.0025864004
0.049131062 0.0058592604 0.0029491712
0.048213046 0.0030208407 0.0031380067
0.047262348 0.00021464191 0.003500558
0.046183743 -0.0026491005 0.0037338512
0.045316152 -0.00542734 0.0040137093
0.044278577 -0.0082323235 0.0041128076
0.043451857 -0.011097371 0.0043354146
0.042348247 -0.013854709 0.0041728127
0.041340988 -0.016724287 0.0039673052
0.040324867 -0.019543741 0.0040858714
0.039454389 -0.022398092 0.0041890233
0.038385879 -0.025307072 0.0042005591
0.037351076 -0.028095726 0.0039488752
0.036439572 -0.031000808 0.0038541765
0.035544626 -0.033886917 0.0036391062
0.034382779 -0.036633622 0.0032198348
0.033510078 -0.039421096 0.0029501538
0.032329611 -0.041183457 0.0029574579
0.051445331 0.0069964835 0.0024714835
0.051196747 0.0049549965 0.0024886364
0.050489441 0.0021652067 0.002514306
0.04932069 -0.00049596652 0.0030973693
0.048538558 -0.0035846848 0.0035701394
0.048056021 -0.0064447187 0.003594772
0.047140554 -0.0092911888 0.0035980644
0.046268325 -0.012120746 0.0035582189
0.045217473 -0.014960451 0.0036302605
0.044353381 -0.017799117 0.0035233451
0.043361627 -0.020603988 0.0032176897
0.042361483 -0.023456065 0.0033730622
0.04136515 -0.026343897 0.003426933
0.040326089 -0.029171837 0.003143267
0.039165154 -0.031821959 0.0030435419
0.037957661 -0.034556821 0.0028860841
0.036840081 -0.037560251 0.0029018198
0.035937663 -0.039331406 0.0029207871
0.049908143 -0.0077714063 0.0032699225
0.04951632 -0.010231748 0.0028305394
0.048862219 -0.013063268 0.0027501665
0.047870941 -0.015836321 0.0028104195
0.047022205 -0.018673085 0.0027415277
0.046102855 -0.021547319 0.0027220922
0.04508115 -0.024503462 0.0027509648
0.044003647 -0.02731459 0.002779085
0.043027475 -0.029846881 0.0028044502
0.041459896 -0.031469874 0.0028264702
0.051012646 -0.014251167 0.0026358187
0.050183848 -0.016604705 0.002658932
0.049120005 -0.019383354 0.0026866896
0.048006289 -0.022104144 0.0027143492
0.046818297 -0.024839191 0.0027424928
0.045333147 -0.028561749 0.0027800945
-0.030795522 0.020397689 0.0058846171
-0.031204391 0.019033473 0.0058975494
-0.034024324 0.012042971 0.0059685046
-0.034930956 0.0095220897 0.005993377
-0.035538606 0.0069688298 0.0060164607
-0.035482608 0.0050105774 0.006030954
-0.026989194 0.022126205 0.0058476594
-0.028440218 0.020041581 0.0058728321
-0.029372346 0.017209375 0.0059002168
-0.030325113 0.0142756 0.0059284586
-0.031395555 0.011490813 0.0059563634
-0.032380667 0.0086405557 0.0059841876
-0.033313934 0.0059403176 0.0060105608
-0.033866726 0.0031721042 0.0060348161
-0.03431486 -3.6405399e-06 0.0060617677
-0.034587055 -0.0017924653 0.006077073
-0.019931858 0.032409191 0.0057252757
-0.021045171 0.030217944 0.0057489513
-0.021986026 0.027436521 0.0057760198
-0.023484811 0.024583675 0.005807213
-0.024604781 0.021906594 0.0058346391
-0.025589891 0.019056343 0.0058624484
-0.026575001 0.016206093 0.0058903168
-0.027560111 0.013355841 0.0059181256
-0.028545225 0.010505579 0.0059459945
-0.029530337 0.0076553216 0.0059738033
-0.030463601 0.0049550822 0.006000177
-0.031448714 0.0021048244 0.0060280459
-0.032433823 -0.00074542966 0.0060558547
-0.033193529 -0.0035189148 0.0060816985
-0.033564784 -0.0064001624 0.0061057066
-0.015158814 0.036409043 0.0056649959
-0.016392827 0.034760658 0.0056853588
-0.017805086 0.032304019 0.0057130284
-0.018799122 0.029472116 0.0057407683
-0.019784231 0.026621863 0.0057686223
-0.020769341 0.023771612 0.005796446
-0.021754451 0.020921359 0.0058242995
-0.022739563 0.018071108 0.0058521237
-0.023724673 0.015220856 0.0058799773
-0.024713002 0.012352238 0.0060856957
-0.025719179 0.0095415162 0.0062139388
-0.026636893 0.0066710878 0.0062427162
-0.027613916 0.0039667841 0.0060121133
-0.028598385 0.0011195829 0.0060177064
-0.029583497 -0.0017306674 0.0060455301
-0.030568607 -0.0045809187 0.0060733836
-0.031553715 -0.007431169 0.0061012078
-0.031605206 -0.0098274462 0.0061194967
-0.012953741 0.036288723 0.0056521497
-0.013978573 0.034187384 0.0056747072
-0.014963686 0.031337131 0.0057025757
-0.015948795 0.028486878 0.0057303845
-0.016933905 0.025636625 0.0057582534
-0.017919015 0.022786373 0.0057860622
-0.018903168 0.01992772 0.005936184
-0.019888148 0.017019402 0.0067062196
-0.020826414 0.014296253 0.006868585
-0.021816351 0.011432045 0.0068965452
-0.022806296 0.0085678063 0.0069245351
-0.023796227 0.005703602 0.0069524953
-0.02507543 0.0034687635 0.0067467405
-0.026914407 0.00013247039 0.0060144006
-0.026977852 -0.0028348817 0.0060375528
-0.027719302 -0.0055723432 0.0060964036
-0.02870339 -0.0084164022 0.006090824
-0.029688505 -0.011266668 0.0061186925
-0.030341633 -0.014112516 0.0061443299
-0.03056258 -0.016368099 0.0061626988
-0.0091053834 0.037415028 0.0056194332
-0.010194973 0.035902381 0.0056380089
-0.011128239 0.033202145 0.0056643831
-0.012113349 0.03035189 0.0056922361
-0.013098465 0.027501639 0.0057200603
-0.014079012 0.024644535 0.0058979099
-0.015047534 0.021756398 0.0066090203
-0.016034912 0.018886311 0.0067636906
-0.017024264 0.016019685 0.0068316623
-0.017997971 0.013352378 0.006869527
-0.019100517 0.01046743 0.007131401
-0.019941993 0.0075777378 0.0069141155
-0.020931926 0.0047135381 0.0069420906
-0.021258682 0.0020988537 0.0069640162
-0.021138223 -0.00027792249 0.0069814082
-0.025524594 -0.0046682782 0.0070422511
-0.025110137 -0.0067744562 0.007000831
-0.025790878 -0.0093265539 0.0062733535
-0.02683817 -0.012251914 0.0061083529
-0.027823284 -0.015102165 0.0061361776
-0.028439216 -0.017511224 0.0061582606
-0.0063600959 0.036974784 0.0056056376
-0.0073446454 0.034917142 0.0056276252
-0.008277908 0.032216907 0.0056539988
-0.0092630172 0.02936665 0.0056818672
-0.010236167 0.026508365 0.005944158
-0.011194648 0.023626421 0.0066262344
-0.012180093 0.020758063 0.0067653214
-0.013170035 0.017893832 0.0067932815
-0.014144481 0.01498493 0.0073277764
-0.015140528 0.012210005 0.0077775796
-0.016175212 0.0094381412 0.0077424254
-0.017101767 0.0066521955 0.0069390908
-0.018067626 0.0037234596 0.0069316854
-0.019057576 0.00085923355 0.0069596758
-0.019832313 -0.0018028175 0.0069847521
-0.020258728 -0.0048872195 0.0070108734
-0.021903567 -0.0078060194 0.0070433635
-0.022956774 -0.010338061 0.0065582385
-0.023987841 -0.013237149 0.006097984
-0.024972955 -0.016087409 0.0061257933
-0.025958069 -0.01893767 0.0061536618
-0.026515501 -0.0214628 0.0061761872
-0.00065546762 0.040665861 0.0055418131
-0.0018993905 0.039237827 0.0055605331
-0.0034839222 0.036730133 0.0055897143
-0.0044943299 0.033931911 0.005617301
-0.0054491805 0.031265978 0.0056549041
-0.0065338193 0.02842333 0.0060940632
-0.0074866642 0.025548555 0.0066995136
-0.0084766038 0.02268433 0.0067274738
-0.0094665438 0.019820102 0.0067554642
-0.01040684 0.017063428 0.0071604163
-0.011343906 0.014132764 0.0078105992
-0.012346989 0.01127459 0.0078386711
-0.013347626 0.0084209666 0.0076665599
-0.014364146 0.0056497091 0.0068938681
-0.015354082 0.0027855067 0.0069218283
-0.016344029 -7.8725163e-05 0.0069498187
-0.017281871 -0.0027922266 0.0069763218
-0.018271806 -0.0056564379 0.007004282
-0.01926174 -0.0085206404 0.0070322719
-0.020251125 -0.011367835 0.0069823414
-0.02125092 -0.014257753 0.0062498176
-0.022122642 -0.01707265 0.0061154692
-0.023107756 -0.019922897 0.0061433227
-0.024220679 -0.022225179 0.006167646
-0.00020541623 0.040510297 0.0055401782
0.00015475322 0.038494058 0.0055534472
-0.0006589042 0.035796929 0.0055791074
-0.0016097445 0.03294602 0.0059769591
-0.0025466857 0.03022272 0.0065125646
-0.0036324374 0.027422719 0.0066611189
-0.0046223723 0.024558492 0.006689094
-0.0056123058 0.02169426 0.0067170691
-0.0066600661 0.018865544 0.0071737887
-0.0076306663 0.016088456 0.0077725425
-0.0086035701 0.013175879 0.0077680992
-0.0094926469 0.010327408 0.0073945215
-0.010492101 0.0074749505 0.0072657736
-0.011499846 0.0046596443 0.0068834485
-0.012489771 0.0017954402 0.0069114235
-0.013479716 -0.0010688091 0.0069393991
-0.014417571 -0.0037823021 0.0069659022
-0.015407511 -0.0066465032 0.0069938772
-0.016397431 -0.0095107071 0.0070218523
-0.017387386 -0.012374947 0.0070498278
-0.018377336 -0.015327252 0.0068929442
-0.01927232 -0.018057885 0.0061050849
-0.020257436 -0.020908132 0.0061329533
-0.020976063 -0.022766557 0.0061513297
0.0042817388 0.03965269 0.0055186059
0.0030542118 0.037656859 0.0055416897
0.0020414321 0.034863535 0.0055692988
0.0011335658 0.032009952 0.006349552
0.00022181496 0.029296875 0.0066227531
-0.00076812785 0.026432648 0.0066507133
-0.0017580646 0.023568422 0.0066787037
-0.0027480111 0.020704195 0.0067066639
-0.0037988275 0.017793695 0.0074251057
